ncols        257
nrows        37
xllcorner    -500
yllcorner    -97.65625
cellsize     3.906250
NODATA_value -9999
-109.7005 -110.4649 -110.7037 -107.2638 -102.6374 -101.4521 -99.2845 -100.4586 -105.0107 -107.6122 -109.2009 -107.6759 -105.7572 -101.5866 -99.0043 -102.0575 -105.2319 -106.7607 -108.9158 -107.5603 -104.9048 -101.4349 -100.0379 -102.4244 -101.2934 -103.0419 -104.3156 -102.0584 -100.2623 -99.2411 -97.7038 -98.1108 -99.3892 -103.7674 -104.3094 -102.1779 -101.0792 -97.3642 -95.4562 -96.1001 -98.6349 -102.0589 -101.8773 -102.0451 -100.0480 -94.9452 -93.9593 -94.3688 -96.1527 -99.0479 -100.5426 -101.6300 -98.3343 -95.3643 -95.7581 -95.1882 -98.2586 -102.9505 -105.7881 -107.0837 -105.2100 -104.5998 -103.4614 -102.7288 -107.4148 -110.8884 -113.0348 -114.5889 -112.9565 -110.7731 -107.3457 -107.1758 -110.0142 -110.8353 -113.9474 -115.3271 -112.6448 -109.9984 -106.9677 -106.7055 -107.3333 -109.2597 -114.0701 -114.3237 -112.9648 -111.8739 -108.5236 -107.2284 -107.5123 -110.6167 -114.0808 -114.2446 -115.6046 -113.8108 -109.5112 -108.5221 -108.2906 -110.3425 -113.0714 -115.8453 -118.7081 -116.5465 -114.9107 -114.5193 -112.5217 -114.2079 -117.4571 -121.2889 -124.2664 -124.6052 -125.8261 -123.4861 -120.2066 -120.5939 -119.8911 -120.7583 -122.9303 -124.9472 -126.9436 -125.7708 -126.0382 -125.5537 -121.9663 -121.3305 -120.2190 -118.6114 -118.0820 -117.4151 -118.6047 -117.7289 -117.7467 -120.3658 -119.9790 -121.2089 -123.5246 -124.4736 -125.5921 -124.8644 -125.0377 -123.1155 -118.8406 -118.0328 -116.0440 -114.7033 -116.5493 -118.2466 -120.4799 -120.1304 -119.3062 -118.0133 -112.8783 -111.0023 -111.0525 -110.8903 -113.4486 -115.2716 -116.4711 -114.4428 -110.2680 -108.4874 -104.7380 -103.2925 -105.8251 -106.9201 -107.9645 -106.7686 -104.3744 -101.0678 -96.1438 -96.3141 -97.7473 -98.7172 -102.2913 -103.1954 -102.0899 -99.3738 -96.9115 -97.6993 -97.7618 -101.1523 -106.1937 -106.7773 -106.8380 -105.0805 -102.5491 -101.1965 -100.8773 -104.9604 -107.4172 -107.8098 -109.0744 -105.9375 -102.2641 -100.4110 -100.3176 -102.9687 -104.3882 -107.1559 -108.0202 -103.8926 -101.7830 -99.8357 -98.7918 -100.7735 -103.1765 -106.2980 -105.2516 -102.3883 -100.7971 -96.4355 -95.2336 -97.4227 -99.3603 -101.5817 -101.0440 -100.0978 -97.1194 -92.8162 -93.9207 -95.5345 -97.7100 -101.6994 -102.8691 -102.4211 -99.3607 -97.5311 -98.6165 -98.6999 -100.4146 -103.5074 -103.0009 -103.5247 -101.8489 -101.5500 -99.9730 -100.0164 -104.4689 -106.0621 -106.2377 -106.5227 -102.9135 -99.9875 -98.5696 -100.0756 -105.6218 -107.0243 -109.7560 -109.2187 -104.7057 -102.7900 -101.3028 -102.1238 -105.0187 -108.4155 -112.2747 -111.1540 -109.6727
-110.2107 -110.9428 -110.8421 -107.3594 -102.6909 -101.2380 -99.4757 -100.6698 -105.0099 -107.5536 -108.8153 -107.1359 -104.8630 -100.9556 -98.8032 -101.5988 -105.2580 -106.8798 -108.6526 -107.3710 -104.7091 -101.7109 -100.3082 -102.9573 -102.3624 -103.3824 -104.5818 -102.6349 -100.3126 -99.4176 -97.8422 -98.7748 -99.9364 -103.5138 -104.6746 -101.8742 -100.1083 -97.1119 -95.2124 -96.2211 -98.6345 -102.3132 -102.5000 -101.3424 -99.9547 -95.4609 -93.8150 -95.0720 -97.0556 -100.0226 -100.9556 -101.3027 -98.9426 -94.9130 -95.1395 -96.0349 -98.3329 -102.9182 -105.5494 -106.5974 -104.6526 -102.8985 -103.3047 -103.0531 -106.6652 -111.5597 -113.3758 -114.2229 -112.4785 -110.2328 -108.0831 -106.9725 -110.4200 -112.7449 -113.8069 -115.1333 -112.6067 -109.2468 -106.4558 -105.8451 -108.1678 -109.6029 -112.8003 -114.6382 -111.8960 -109.8425 -107.6687 -106.6387 -107.9874 -110.3373 -114.5726 -115.4111 -113.9064 -113.1365 -109.6412 -107.7520 -108.8796 -111.2403 -114.8171 -116.2203 -117.5088 -116.9450 -113.1372 -112.5019 -113.0300 -114.3658 -118.2252 -121.5843 -124.6337 -124.4144 -122.6277 -122.2548 -119.5659 -118.9101 -121.1646 -122.7760 -125.2367 -126.5068 -127.4943 -127.0595 -123.7973 -122.8349 -120.9806 -118.0025 -117.6484 -116.8779 -116.6080 -116.1421 -115.8878 -117.2685 -116.1612 -116.3634 -118.3700 -118.3345 -119.9192 -121.9631 -123.8752 -125.3656 -124.6400 -124.9397 -122.7995 -118.6147 -117.3538 -115.7170 -115.3395 -117.0208 -118.9167 -121.1020 -119.7664 -117.8622 -115.9844 -111.3562 -109.8356 -110.6927 -112.0095 -114.4286 -115.1549 -115.3578 -112.4143 -107.5280 -106.0163 -104.2636 -104.1575 -106.8208 -108.0675 -108.1114 -105.0592 -101.5969 -99.0871 -95.6083 -96.6696 -99.7887 -101.2782 -103.0091 -102.2913 -100.4155 -97.6848 -95.7511 -98.4867 -100.8884 -103.7242 -107.5905 -107.3592 -105.5135 -102.9352 -101.4828 -102.4955 -103.3952 -107.2385 -110.0426 -108.4143 -106.8743 -103.8024 -100.9768 -100.4206 -101.6212 -105.5432 -106.7810 -106.2944 -105.8737 -101.7541 -98.8996 -98.8187 -100.1924 -103.2424 -104.5913 -105.7840 -104.3222 -99.3892 -97.5228 -96.5357 -96.7142 -99.5776 -101.6085 -102.7159 -100.2397 -96.7904 -95.4946 -93.2204 -94.5065 -98.6769 -101.1119 -102.7986 -101.8330 -100.2265 -98.3040 -96.4271 -99.5933 -100.7125 -101.7239 -103.5734 -103.8406 -102.5135 -101.5925 -100.1261 -102.1363 -103.2508 -105.9998 -108.4305 -106.0943 -103.4365 -100.6107 -99.0909 -99.9679 -103.7930 -108.1495 -109.4327 -107.3097 -105.9628 -102.5219 -100.4255 -101.5522 -104.5206 -108.9824 -110.5736 -111.5654 -111.4925
-110.5813 -111.3438 -110.8759 -107.4457 -102.9003 -101.0313 -99.7326 -101.0642 -105.0518 -107.5678 -108.5033 -106.7283 -104.1007 -100.2389 -98.7107 -101.1665 -105.0173 -106.9483 -108.2895 -107.0384 -104.3780 -101.8443 -100.6763 -103.2362 -103.2412 -103.9435 -104.7051 -103.1918 -100.5570 -99.7435 -98.1653 -99.3598 -100.8328 -103.4431 -104.7556 -101.9831 -99.3060 -96.7471 -95.0962 -96.3272 -98.7665 -102.1571 -102.9885 -101.0416 -99.3305 -95.9604 -94.0114 -95.5367 -97.9352 -100.8489 -101.7284 -101.0040 -99.1654 -95.3557 -94.6082 -96.5663 -98.9686 -102.9018 -105.3727 -105.8638 -104.3009 -101.7875 -102.2745 -103.6180 -106.3615 -111.2847 -113.6601 -113.7671 -112.0109 -109.4128 -108.3138 -107.7535 -110.2252 -113.9201 -114.6340 -114.5123 -112.4019 -108.7530 -106.3412 -105.5199 -108.0378 -110.7204 -112.0719 -113.5261 -111.5453 -108.1964 -106.5032 -106.0777 -108.2464 -110.9108 -113.8589 -115.8480 -113.6634 -111.3353 -109.6009 -107.9947 -109.4244 -112.2471 -115.6594 -117.4899 -116.4825 -115.6444 -113.2024 -111.1420 -112.8189 -115.4291 -118.9767 -122.0524 -123.4819 -123.7260 -121.0382 -119.2780 -119.4447 -119.3299 -121.7020 -124.7927 -126.8421 -127.8253 -126.6047 -125.5026 -123.0264 -119.6642 -118.8713 -117.6737 -116.6662 -116.9940 -117.0180 -117.5388 -116.9634 -116.7863 -117.5267 -116.2191 -116.1427 -117.1330 -117.4340 -119.0938 -120.9903 -123.5350 -125.1988 -124.6014 -124.4168 -121.9786 -118.1509 -116.4955 -115.4868 -116.2151 -117.9390 -119.6851 -121.1666 -118.9831 -115.9697 -113.4976 -110.0839 -109.4454 -111.0035 -113.2594 -115.1861 -114.4797 -113.1212 -109.7603 -105.3085 -104.3668 -104.6583 -105.9458 -108.0221 -108.2781 -107.0174 -102.9100 -98.9672 -97.6782 -96.6727 -98.5091 -101.8205 -103.0633 -102.8485 -100.4155 -98.2042 -96.9050 -96.5453 -100.2819 -104.1796 -106.1927 -107.5598 -106.1444 -103.8039 -101.7583 -101.6196 -104.7324 -106.9889 -109.0922 -110.3715 -107.6544 -104.3293 -101.6533 -100.7626 -102.2691 -103.9926 -106.9049 -107.5668 -104.6010 -102.1832 -99.4815 -98.1007 -99.5320 -102.0810 -105.2471 -105.3667 -103.4133 -101.4232 -97.5970 -96.0121 -97.5271 -99.6757 -102.1818 -102.4751 -101.4160 -98.7337 -94.6047 -94.0920 -95.5211 -97.6136 -101.1651 -102.8118 -102.5235 -100.0948 -97.4719 -97.8286 -98.6874 -99.2796 -102.6107 -103.0863 -103.6815 -102.5928 -102.4071 -101.2992 -101.0493 -104.1454 -107.3389 -107.5684 -107.2094 -104.5457 -101.0461 -99.2334 -99.4472 -104.7669 -107.1892 -108.2332 -108.6180 -105.2391 -101.7561 -100.4751 -100.9891 -104.1722 -107.4640 -110.8557 -112.3184 -110.1031
-110.7840 -111.6282 -110.7881 -107.4747 -103.2074 -100.8336 -99.9996 -101.6069 -105.1553 -107.6536 -108.2865 -106.4530 -103.5418 -99.4899 -98.6787 -100.8713 -104.5700 -106.9304 -107.8977 -106.5868 -103.9490 -101.7650 -101.0957 -103.3837 -103.7549 -104.6575 -104.8810 -103.5894 -100.9449 -100.1775 -98.7098 -99.8695 -101.8409 -103.8054 -104.6208 -102.2432 -98.9275 -96.3259 -95.0685 -96.4064 -99.0464 -101.9174 -103.0174 -101.1274 -98.6395 -96.0279 -94.4987 -95.9300 -98.7055 -101.4921 -102.5154 -101.1707 -98.9690 -96.0191 -94.7816 -96.7412 -99.7541 -103.1409 -105.2964 -105.1966 -103.6638 -101.3766 -101.2023 -103.4976 -106.6382 -110.7484 -113.4059 -113.2766 -111.4255 -108.8249 -107.8443 -108.5528 -110.6464 -114.0530 -115.4775 -114.3761 -111.8925 -108.4225 -106.2052 -105.9214 -107.8625 -111.0570 -112.4123 -112.2380 -110.5486 -107.3157 -105.4105 -105.6327 -108.0366 -111.4743 -113.7342 -114.8592 -113.5455 -110.4466 -108.7262 -108.4939 -110.2017 -113.4137 -116.2206 -117.8358 -116.6897 -114.1948 -112.5326 -111.4622 -112.7669 -116.2345 -119.7046 -122.3053 -122.6400 -121.5837 -119.8615 -117.8618 -118.2801 -120.4309 -122.9704 -125.9332 -127.5417 -127.5497 -125.8216 -122.9910 -121.0164 -119.0187 -117.7602 -118.1761 -118.4999 -119.0099 -119.5196 -119.7656 -120.0507 -119.3076 -118.7894 -118.4484 -117.0576 -116.4036 -116.4265 -116.9634 -118.6536 -120.7511 -123.4673 -125.0880 -124.6239 -123.4551 -120.6622 -117.4100 -115.7859 -115.6569 -117.3082 -119.1908 -120.3632 -120.3764 -117.4922 -113.8010 -111.0746 -109.3235 -109.9668 -112.0518 -114.2495 -115.0654 -113.0440 -110.1337 -106.8487 -104.0450 -104.1491 -105.8783 -107.8656 -108.8105 -107.4159 -104.6629 -100.6439 -97.5304 -97.5148 -98.8830 -101.2503 -103.3735 -103.3108 -101.5015 -98.4310 -96.6089 -97.2346 -99.1796 -103.0012 -106.4686 -107.3357 -106.3722 -104.0026 -102.2471 -102.1090 -103.6529 -107.2864 -109.8705 -110.0715 -108.7182 -105.4420 -102.3532 -101.0121 -101.8934 -104.6931 -106.5086 -106.9519 -105.7565 -102.1612 -99.1051 -97.9987 -98.9787 -101.7302 -104.0546 -105.3748 -104.2715 -100.7547 -98.1014 -96.7505 -97.2208 -99.8097 -102.2995 -103.5459 -102.1153 -98.9004 -96.3737 -94.5305 -95.1251 -98.2738 -101.1993 -102.9734 -102.4758 -100.4060 -98.3144 -96.8491 -98.4160 -99.6130 -101.5475 -102.9422 -103.7848 -102.8325 -102.8428 -101.0590 -102.1066 -104.4446 -106.8178 -108.8421 -107.9565 -104.9518 -101.7880 -99.6431 -100.0744 -104.0606 -106.8991 -108.9686 -107.7406 -105.0006 -102.0646 -99.8374 -100.3966 -103.1675 -107.2906 -110.5577 -111.2078 -110.7901
-110.8027 -111.7633 -110.5701 -107.4052 -103.5412 -100.6445 -100.2258 -102.2390 -105.3283 -107.8008 -108.1758 -106.2958 -103.2246 -98.7881 -98.6533 -100.7785 -104.0261 -106.7958 -107.5310 -106.0585 -103.4720 -101.4609 -101.4626 -101.7613 -103.8493 -105.3492 -105.1271 -103.7709 -101.3753 -100.6707 -99.4429 -100.4120 -102.7169 -104.6211 -104.5521 -102.3915 -99.0117 -96.0355 -95.0912 -96.4915 -99.3496 -101.9106 -102.6270 -101.2064 -98.3243 -95.6724 -94.9319 -96.4143 -99.3364 -102.0521 -103.0002 -101.7310 -98.8938 -96.2840 -95.5516 -97.0844 -100.3105 -103.6141 -105.3212 -104.8662 -102.8539 -100.9925 -100.8215 -102.8693 -106.6909 -110.5642 -112.7444 -112.6080 -110.6225 -108.3658 -107.4185 -108.5436 -111.3903 -114.2540 -115.5193 -114.5139 -111.5370 -108.1559 -106.0900 -106.2669 -108.4170 -110.9783 -112.4218 -111.8380 -109.3102 -106.3751 -104.7161 -105.2864 -107.9521 -111.3153 -113.7882 -114.1777 -112.4225 -109.9470 -108.3002 -108.5912 -111.0071 -114.3579 -117.0540 -117.7849 -116.3565 -113.9123 -111.8608 -111.5907 -113.6203 -116.9919 -120.2680 -122.0565 -121.7792 -120.0301 -117.9644 -117.1030 -118.2221 -120.8625 -124.1112 -126.6278 -127.3954 -126.3191 -123.9358 -121.3799 -119.5068 -118.6768 -119.0442 -120.0522 -121.1143 -121.9888 -122.4474 -122.5764 -122.4089 -121.9915 -121.4459 -120.4946 -119.1717 -117.7757 -116.5224 -116.0059 -116.6623 -118.5490 -121.2430 -123.6519 -124.8970 -124.3794 -122.0422 -118.9797 -116.4910 -115.5729 -116.5312 -118.5492 -120.3694 -120.6032 -118.6198 -115.2129 -111.6602 -109.4152 -109.4051 -111.1852 -113.4703 -114.5924 -113.5720 -110.7388 -107.1401 -104.4721 -103.9670 -105.4013 -107.6558 -109.0560 -108.3948 -105.6625 -101.8371 -98.7835 -97.8497 -99.0548 -101.5503 -103.6440 -103.9164 -102.1517 -99.2562 -97.0384 -96.8330 -98.8939 -102.5030 -105.8188 -107.2822 -106.5404 -104.3253 -102.3232 -101.9515 -103.7112 -106.9364 -109.7642 -110.7109 -109.3288 -106.2001 -103.0479 -101.4700 -102.1353 -104.4337 -106.6256 -107.2869 -105.7556 -102.4933 -99.2746 -97.7042 -98.4661 -101.0219 -103.7195 -105.0241 -104.0372 -101.1937 -98.2453 -96.7071 -97.3705 -99.8662 -102.5878 -103.9179 -102.9116 -100.0461 -96.9797 -95.2185 -95.7808 -98.3979 -101.4359 -103.2710 -102.9326 -100.7849 -98.3158 -97.0762 -98.2103 -98.9216 -101.3156 -102.7414 -103.5581 -102.8046 -101.3386 -101.5296 -102.1241 -104.5690 -107.4172 -109.1590 -108.5715 -105.8466 -102.4906 -100.2022 -100.2024 -104.2832 -106.9935 -108.6225 -107.8778 -105.0660 -101.7126 -99.5143 -99.8194 -102.5747 -106.5115 -109.8537 -111.1411 -110.4618
-110.6349 -111.7264 -110.2231 -107.2085 -103.8254 -100.4606 -100.3714 -102.8852 -105.5650 -107.9925 -108.1704 -106.2349 -103.1478 -98.2226 -98.5957 -100.8958 -103.5193 -106.5397 -107.2181 -105.5070 -102.9965 -100.9839 -101.6564 -101.8118 -103.6075 -105.8096 -105.4974 -103.7768 -101.7331 -101.1738 -100.2612 -101.1160 -103.3537 -105.6671 -104.8597 -102.3594 -99.3715 -96.0699 -95.1759 -96.6553 -99.5436 -102.2070 -102.2084 -100.8958 -98.4119 -95.3007 -95.0020 -96.9590 -99.8516 -102.6203 -103.2051 -102.1833 -99.3629 -96.2543 -96.2245 -97.9640 -100.7402 -104.0962 -105.4410 -104.7891 -102.4145 -100.2408 -100.7874 -102.6546 -106.1233 -110.4319 -112.1938 -111.7260 -109.7120 -107.5796 -107.3115 -108.3023 -111.3620 -114.8453 -115.4085 -114.1669 -111.4158 -107.9688 -106.2383 -106.3886 -108.8938 -111.5988 -111.9937 -111.3317 -108.8338 -105.3830 -104.1065 -104.9931 -107.9883 -111.3013 -113.0633 -113.7018 -111.7197 -108.7826 -108.0792 -108.9121 -111.5779 -115.0911 -117.4225 -118.1417 -115.9827 -113.1840 -112.1362 -111.9870 -114.1888 -117.9856 -120.7187 -121.8720 -120.5689 -118.5114 -117.1010 -116.1895 -118.1690 -121.8356 -124.5867 -126.5617 -126.4677 -124.7092 -122.2106 -119.5474 -119.1616 -119.8392 -120.5998 -122.6227 -123.9081 -124.1980 -124.1790 -123.6290 -123.6650 -123.1420 -122.3807 -122.5392 -121.3096 -119.3565 -117.8318 -116.1792 -115.7766 -116.5295 -118.8257 -122.3163 -123.9803 -124.3776 -123.4615 -120.2169 -117.2760 -115.7199 -116.1065 -118.2082 -119.7473 -120.8548 -119.9599 -116.0799 -112.5015 -109.9732 -109.0834 -110.5385 -112.5664 -114.4368 -113.9622 -110.7657 -107.7947 -104.9581 -103.5514 -105.0828 -107.4051 -109.3139 -109.0198 -106.3872 -103.3902 -99.8264 -98.1309 -99.7278 -101.9161 -103.9879 -104.5792 -102.9433 -100.3782 -97.3303 -96.7024 -99.0740 -101.8694 -105.2280 -107.3104 -106.5783 -104.5365 -102.1519 -101.8626 -103.7624 -106.2213 -109.6666 -111.2801 -109.6215 -106.8568 -103.6778 -102.0041 -102.4185 -104.1305 -107.0023 -107.7026 -105.6507 -102.9956 -99.5627 -97.4814 -98.0562 -100.3555 -103.5305 -104.6042 -103.5783 -101.6692 -98.2892 -96.4546 -97.4986 -99.8615 -102.8435 -104.1581 -103.5389 -100.4453 -96.5467 -94.8119 -95.8165 -98.6724 -101.7649 -103.7124 -103.5023 -101.4384 -98.2740 -97.3260 -98.4078 -98.1454 -100.9888 -102.6715 -103.2426 -102.6945 -101.1461 -101.9514 -102.2865 -104.2601 -107.9868 -109.6874 -108.8812 -106.7008 -103.2334 -100.9042 -100.4764 -104.3190 -107.5517 -108.5457 -107.6870 -105.4806 -101.5619 -99.1200 -99.2983 -101.9258 -106.0510 -108.8943 -110.6373 -110.5231
-110.2925 -111.5082 -109.7582 -106.8719 -103.9880 -100.2737 -100.4117 -103.4639 -105.8442 -108.2065 -108.2571 -106.2458 -103.2725 -97.8713 -98.4975 -101.1774 -103.1743 -106.1957 -106.9641 -104.9883 -102.5604 -100.4336 -101.5921 -101.9405 -103.2085 -105.8898 -105.9346 -103.7102 -101.9322 -101.6418 -101.0270 -102.0311 -103.8317 -106.6147 -105.6695 -102.3237 -99.7389 -96.4948 -95.3891 -96.9729 -99.6268 -102.6058 -102.1880 -100.2056 -98.5140 -95.3222 -94.7412 -97.3604 -100.2827 -103.1574 -103.4327 -102.1538 -100.1358 -96.5578 -96.3522 -99.0707 -101.4439 -104.4613 -105.6642 -104.6879 -102.5415 -99.6187 -100.2893 -103.0838 -105.6206 -109.7532 -111.8535 -110.8324 -108.8576 -106.5048 -106.8374 -108.5926 -110.7454 -114.7586 -115.8318 -113.5556 -111.0434 -107.8622 -106.4550 -106.9293 -108.7671 -112.2215 -112.4604 -110.2831 -108.4131 -105.1238 -103.5017 -104.8136 -107.6813 -111.5662 -112.7024 -112.2190 -111.4112 -108.2527 -107.1328 -109.2668 -112.1204 -115.7650 -117.5728 -117.7244 -116.4672 -112.7386 -111.5999 -113.2393 -115.0231 -118.5227 -121.1188 -121.5202 -120.1215 -116.8306 -115.9290 -116.7477 -117.8828 -121.9485 -125.2678 -125.9007 -125.1378 -122.5104 -120.6642 -119.2494 -118.5463 -121.3021 -123.4153 -124.1100 -125.3680 -124.9411 -124.0061 -122.8072 -121.7042 -122.5904 -122.2505 -121.7585 -122.7183 -121.2957 -118.9918 -117.0631 -115.3736 -115.8316 -116.8228 -119.5600 -123.6111 -124.1517 -123.2460 -121.6178 -118.1723 -116.1114 -115.6029 -117.3952 -120.3540 -120.5318 -120.0791 -118.1247 -113.2650 -110.1851 -109.2213 -110.1453 -112.5109 -113.4380 -114.0142 -112.1888 -107.4069 -104.9782 -104.1491 -104.5291 -107.1238 -109.0112 -109.8387 -107.7865 -103.3639 -101.1885 -99.6230 -99.4002 -102.4596 -104.7645 -105.4477 -103.8888 -100.5839 -98.8053 -97.2219 -97.8934 -102.2808 -105.2391 -106.6572 -106.6563 -104.4692 -102.7115 -101.3240 -102.6605 -106.9626 -109.2160 -110.5549 -110.6096 -107.3615 -104.1855 -102.0895 -102.5279 -105.1997 -106.3783 -107.5858 -107.1329 -102.8850 -99.5070 -97.7406 -97.8536 -100.2627 -102.3120 -104.5343 -104.3333 -100.5661 -98.3340 -97.1037 -96.9779 -99.7683 -102.6767 -104.0146 -103.1679 -99.5036 -97.3638 -95.3966 -94.8365 -98.2254 -101.5433 -104.2998 -104.0253 -101.5010 -99.6540 -97.4758 -97.4145 -98.8064 -100.7506 -101.8771 -103.1661 -102.4731 -101.5216 -101.5015 -101.8488 -105.4370 -107.6011 -109.4123 -110.1661 -107.2210 -103.8459 -101.2599 -101.0188 -105.3949 -106.8844 -108.7091 -108.9026 -104.9363 -101.4273 -99.2596 -98.9031 -101.4925 -104.6854 -108.7085 -110.6844 -108.9527
-109.8005 -111.1142 -109.1959 -106.4001 -103.9698 -100.0712 -100.3383 -103.8983 -106.1310 -108.4180 -108.4120 -106.3067 -103.5317 -97.7809 -98.3853 -101.5424 -103.0751 -105.8348 -106.7608 -104.5527 -102.1863 -99.9259 -101.2612 -102.0556 -102.8463 -105.5708 -106.2931 -103.6718 -101.9460 -100.4114 -101.6251 -103.0735 -104.3479 -107.2290 -106.8266 -102.5782 -99.9590 -97.1993 -95.8098 -97.4768 -99.7560 -102.8394 -102.6822 -99.5711 -98.2191 -95.7621 -94.5046 -97.4513 -100.6282 -103.5209 -103.9058 -101.8146 -100.5339 -97.5199 -96.2628 -99.7414 -102.5415 -104.8420 -105.9970 -104.5008 -102.7764 -99.8146 -99.3515 -103.3024 -105.9375 -108.7319 -111.2827 -110.1087 -108.0408 -105.6864 -105.5923 -108.8256 -110.7577 -113.5889 -116.0057 -113.4947 -110.3140 -107.7128 -106.3676 -107.8001 -109.0645 -111.7281 -113.4605 -110.1602 -107.2357 -105.2135 -103.3635 -104.7936 -107.4238 -111.0337 -113.2354 -111.0939 -109.7873 -108.5714 -106.6404 -108.8244 -112.5845 -116.0709 -118.2403 -116.9523 -115.8810 -113.8439 -111.1277 -113.3085 -116.6973 -119.0932 -121.3798 -120.9081 -119.4946 -116.8539 -114.2365 -116.5077 -119.3108 -121.4013 -124.8463 -125.3469 -123.6285 -120.9982 -118.3658 -119.2162 -120.0849 -121.3242 -125.1515 -125.9810 -124.7937 -123.7991 -121.7274 -120.7360 -119.2283 -118.5654 -120.8836 -121.1157 -121.1484 -122.3462 -120.5711 -118.0786 -115.6333 -114.4258 -116.4149 -117.8551 -120.6809 -124.5126 -123.6632 -121.3512 -119.0311 -116.3527 -116.0794 -116.5692 -119.0895 -122.1369 -120.4015 -117.8917 -115.2672 -110.9118 -109.2462 -109.7544 -111.9945 -114.4952 -113.2407 -111.7655 -109.4477 -104.6734 -103.4320 -104.8400 -106.8658 -109.3997 -109.3099 -108.4470 -105.7762 -100.7931 -99.9614 -101.2964 -102.4562 -105.2250 -106.1259 -105.1652 -102.3345 -98.1318 -98.0366 -99.4149 -100.8195 -105.0682 -107.2636 -106.5001 -104.5730 -101.7529 -101.8688 -102.9715 -104.7395 -109.5863 -111.3768 -109.7028 -107.8026 -104.5583 -102.8872 -102.7387 -104.0307 -107.9110 -108.3092 -105.9452 -104.1736 -100.2453 -97.4844 -97.6718 -99.5374 -103.2020 -103.9364 -102.8255 -102.0883 -98.2631 -95.8947 -97.4006 -99.6723 -102.1034 -103.1490 -102.3806 -100.9785 -96.3844 -94.1464 -96.0722 -97.8767 -101.2086 -103.9272 -104.7654 -103.1735 -99.0758 -97.5280 -97.6464 -97.6357 -99.9939 -102.5719 -102.7760 -102.3838 -100.5884 -101.7713 -102.9505 -103.8056 -107.6997 -110.9540 -109.6230 -107.6356 -104.5980 -102.0990 -101.8722 -104.4798 -107.9959 -110.0468 -107.6318 -105.5750 -102.3063 -98.7358 -98.6132 -100.5116 -104.9443 -108.3297 -108.5458 -109.4952
-109.1948 -110.5645 -108.5643 -105.8146 -103.7321 -99.8371 -100.1582 -104.1270 -106.3807 -108.6015 -108.6026 -106.4000 -103.8445 -97.9532 -98.3131 -101.9018 -103.2440 -105.5505 -106.6005 -104.2381 -101.8845 -99.5565 -100.7445 -102.0293 -102.6472 -104.9747 -106.4116 -103.7019 -101.8086 -100.6197 -102.0072 -104.0517 -105.0692 -107.5034 -107.9808 -103.3144 -100.0944 -97.9714 -96.4678 -98.1395 -100.1396 -102.8311 -103.4177 -99.5024 -97.5155 -96.2439 -94.6444 -97.2889 -100.8599 -103.6178 -104.4996 -101.7017 -100.1901 -98.6808 -96.6531 -99.7386 -103.6303 -105.4377 -106.4122 -104.4886 -102.6034 -100.6725 -98.9354 -102.6199 -106.7045 -108.2472 -110.2648 -109.4765 -107.1318 -105.3072 -104.3242 -107.9107 -111.4484 -112.6091 -114.9300 -113.7696 -109.7858 -107.4129 -106.1064 -108.0216 -110.3327 -111.1414 -113.2087 -111.3268 -106.5006 -104.6451 -103.6708 -104.8497 -107.8219 -110.0938 -112.8866 -111.6927 -107.9566 -107.6327 -107.2945 -108.3352 -112.5722 -115.9499 -118.4599 -117.5178 -114.3461 -113.9122 -112.6675 -112.7984 -117.2798 -120.2957 -121.6044 -120.9129 -118.0821 -116.8386 -114.9011 -114.9208 -119.7583 -122.5402 -123.6202 -124.2477 -122.0015 -119.8767 -117.6758 -117.4708 -121.4564 -123.3039 -124.3211 -126.1912 -124.2564 -121.4437 -119.1013 -117.1883 -117.4817 -116.2725 -116.4014 -119.9184 -120.7384 -121.0110 -121.4252 -119.0207 -116.6300 -114.0854 -113.9600 -117.7550 -119.6286 -121.7747 -124.2705 -122.0384 -118.9022 -116.4704 -115.4074 -117.4484 -118.5706 -120.4875 -122.5053 -118.9650 -114.8200 -112.2421 -109.7555 -110.2196 -111.4883 -113.5453 -115.2629 -111.7537 -108.2507 -106.4641 -103.5675 -104.0249 -106.7033 -109.1568 -110.7888 -108.1390 -105.3861 -103.6484 -100.1483 -100.6610 -104.0705 -105.9226 -107.1727 -105.5195 -102.9940 -100.8708 -97.4737 -98.6962 -102.8518 -104.6015 -106.6330 -106.7912 -104.6225 -102.6020 -100.2617 -102.1542 -106.3334 -107.8356 -110.3299 -110.9862 -107.6351 -104.7374 -102.4070 -103.0727 -105.6659 -106.3270 -108.3877 -108.3112 -103.5052 -100.2326 -98.2031 -97.8397 -99.9985 -101.5781 -104.2323 -104.4433 -100.1158 -98.1135 -97.1445 -96.5441 -98.6196 -101.1782 -103.3031 -102.8392 -98.5296 -96.5901 -95.2802 -94.0858 -97.7526 -101.8773 -104.2676 -104.8214 -102.6666 -100.8517 -99.0445 -95.7248 -98.3929 -101.0282 -101.4533 -102.6603 -101.9508 -101.1337 -101.9059 -100.9865 -105.0536 -108.4955 -109.1836 -110.5009 -108.5769 -104.9022 -102.5097 -101.4331 -106.3264 -108.5680 -108.5096 -109.4584 -106.5100 -101.3416 -99.1057 -98.4374 -100.8656 -104.1406 -106.4615 -109.7570 -108.9169
-108.5187 -109.8922 -107.8972 -105.1512 -103.2622 -99.5547 -99.8902 -104.1121 -106.5447 -108.7322 -108.7914 -106.5129 -104.1330 -98.3415 -98.3449 -102.1852 -103.6382 -105.4339 -106.4874 -104.0666 -101.6606 -99.3741 -100.1895 -101.7657 -102.6216 -104.3138 -106.1981 -103.7579 -101.5887 -100.7021 -102.2014 -104.7603 -106.0042 -107.6432 -108.7990 -104.4669 -100.3656 -98.6393 -97.3124 -98.8941 -100.8784 -102.7871 -103.9851 -100.1597 -96.8505 -96.3587 -95.1878 -97.1319 -100.9685 -103.5200 -104.8568 -102.1278 -99.4767 -99.2321 -97.7223 -99.5394 -104.1955 -106.2175 -106.8477 -104.8880 -102.1507 -101.2809 -99.6491 -101.6006 -106.8555 -108.6353 -109.2778 -108.7602 -106.1607 -104.8549 -103.8986 -106.1489 -111.3715 -112.8022 -113.2664 -113.2852 -109.7000 -107.0156 -106.0739 -107.4268 -111.2360 -111.9874 -111.9887 -111.8478 -107.3073 -103.9094 -103.7800 -104.9299 -108.3364 -110.2897 -111.3486 -112.0156 -108.1962 -105.7134 -107.2220 -108.7231 -112.2728 -115.8914 -117.6002 -118.1027 -114.6128 -112.2009 -113.6252 -114.1467 -116.8223 -120.9264 -121.9356 -121.2485 -117.9326 -115.2055 -115.8471 -115.7328 -118.1875 -123.0091 -123.7853 -122.7761 -120.6403 -117.9535 -117.7465 -117.5455 -119.9055 -124.7621 -125.1605 -124.0184 -122.8811 -119.5379 -117.4023 -115.7275 -115.0610 -116.2017 -115.0864 -116.0083 -120.1182 -121.1220 -120.8912 -119.5966 -116.5869 -114.9891 -113.3224 -114.6589 -119.7329 -121.5089 -122.0815 -122.3809 -119.2738 -116.5958 -115.0761 -115.8870 -119.8004 -120.8091 -120.7596 -120.8022 -116.3206 -111.9935 -110.3622 -110.2069 -112.6599 -113.6614 -113.7621 -113.8880 -109.2496 -104.9378 -104.4538 -104.3950 -106.5560 -108.9734 -109.9618 -110.2150 -106.0677 -102.1886 -102.2998 -101.8629 -103.4767 -106.8890 -107.9136 -107.4246 -103.7540 -100.1501 -100.1679 -99.5258 -101.2172 -105.8788 -107.2287 -106.6421 -104.4892 -101.7109 -101.6693 -101.5368 -103.7924 -109.1720 -110.3886 -109.3696 -108.0037 -104.7463 -103.1700 -102.6799 -104.3044 -108.5755 -108.6829 -106.7282 -105.3273 -101.0483 -98.0371 -97.9155 -99.5103 -103.1880 -103.7673 -102.5842 -102.1511 -98.2453 -95.5018 -97.0500 -98.3175 -101.2269 -102.2672 -101.1421 -100.0975 -95.7445 -92.8872 -95.3421 -97.8473 -101.2756 -104.6244 -105.0476 -104.9406 -100.9453 -98.0780 -98.2584 -98.4716 -99.5312 -102.3967 -102.7167 -102.0698 -100.3677 -100.9193 -102.8470 -104.2664 -106.6219 -110.9589 -110.6808 -107.9721 -105.3918 -102.7193 -103.0466 -105.9148 -107.7039 -111.1517 -109.5332 -105.4327 -102.7939 -99.3715 -98.4856 -100.1836 -103.2197 -107.8767 -108.4046 -106.8507
-107.8187 -109.1405 -107.2308 -104.4554 -102.5754 -99.2101 -99.5603 -103.8445 -106.5781 -108.7883 -108.9402 -106.6349 -104.3363 -98.8582 -98.5325 -102.3601 -104.1634 -105.5467 -106.4424 -104.0450 -101.5232 -99.3721 -98.0262 -101.2570 -102.6726 -103.7998 -105.6856 -103.7415 -101.3511 -100.6539 -102.2823 -105.0853 -106.9760 -107.9115 -109.1642 -105.7311 -100.9713 -99.1780 -98.2328 -99.6780 -101.8835 -103.0431 -104.2040 -101.2275 -96.7691 -96.0721 -95.8284 -97.2242 -101.0013 -103.4216 -104.7676 -102.8369 -99.1246 -98.8856 -98.8728 -99.7759 -104.1820 -106.8986 -107.2426 -105.5649 -102.0412 -101.1046 -100.8576 -101.3927 -106.1053 -109.1820 -108.9157 -108.0079 -105.3548 -103.9056 -103.9763 -104.9710 -109.8443 -113.2001 -112.4648 -111.8712 -109.4836 -106.6127 -106.1725 -107.0242 -110.7197 -113.3665 -111.9023 -110.9096 -108.3641 -104.2089 -103.6141 -105.1166 -108.2516 -111.2534 -110.8634 -110.6166 -109.1091 -105.3913 -105.8426 -108.9534 -112.1688 -115.9208 -117.0542 -117.0101 -115.6988 -112.0192 -112.3016 -115.4870 -117.5465 -120.6936 -122.2063 -121.0208 -118.7764 -114.9198 -114.4557 -117.1996 -118.5534 -121.4902 -123.8372 -122.1613 -119.6647 -116.7204 -116.0076 -118.4587 -119.9065 -122.8454 -125.7313 -123.5721 -120.5612 -118.1268 -116.2434 -116.8199 -116.2047 -114.9748 -115.7735 -115.4579 -117.3907 -121.0676 -121.2724 -119.7713 -116.7343 -113.8659 -114.0212 -114.1928 -116.6930 -121.5849 -122.3038 -120.8814 -119.1056 -116.1984 -115.4212 -115.7030 -117.7571 -121.9777 -121.9396 -119.3890 -117.3888 -113.3264 -110.6488 -110.6577 -112.0508 -115.1509 -114.9605 -112.2398 -110.5694 -106.5518 -103.4162 -104.5382 -106.6327 -109.5438 -110.5169 -108.7656 -107.5562 -104.0213 -100.8274 -102.6956 -105.0703 -107.1710 -108.7891 -107.4910 -105.6286 -102.1151 -98.8191 -100.7928 -103.3080 -104.9067 -107.4644 -107.1288 -104.9111 -102.1639 -99.7528 -101.9363 -104.9473 -106.6584 -109.9852 -110.2906 -107.2021 -104.5604 -102.3294 -103.2341 -105.5109 -106.5791 -109.1985 -108.9308 -104.3627 -101.2245 -98.9328 -98.3789 -100.2936 -101.8285 -104.3654 -104.5348 -100.2896 -97.9985 -96.9591 -96.3360 -97.9085 -100.3619 -102.2400 -102.0190 -97.7454 -95.2888 -94.6156 -93.8433 -97.3527 -102.2238 -105.0955 -106.1910 -104.4744 -101.9002 -100.7450 -96.9944 -98.2229 -101.4422 -101.9997 -102.5067 -101.7226 -100.3664 -100.3966 -101.0227 -103.6836 -108.5815 -109.7000 -109.9143 -108.9545 -105.5268 -103.3786 -102.3204 -106.1483 -110.0502 -110.1344 -109.1396 -107.6615 -102.7116 -99.1969 -98.5661 -100.1751 -104.2570 -106.2266 -107.3200 -108.4332
-107.1399 -108.3588 -106.6012 -103.7774 -101.7141 -98.7958 -99.1968 -103.3442 -106.4471 -108.7524 -109.0150 -106.7555 -104.4209 -99.3925 -98.8941 -102.4363 -104.7014 -105.9004 -106.4980 -104.1674 -101.4888 -99.5017 -97.7212 -100.6009 -102.6555 -103.5559 -105.0294 -103.5590 -101.1256 -100.4824 -102.3205 -105.0602 -107.7153 -108.4394 -109.2292 -106.7459 -101.9211 -99.7004 -99.1183 -100.4640 -102.9375 -103.7912 -104.2840 -102.1993 -97.4555 -95.7827 -96.2363 -97.5949 -101.0481 -103.4767 -104.4094 -103.2800 -99.4538 -98.1815 -99.3424 -100.4912 -104.0285 -107.2373 -107.5688 -106.1312 -102.5790 -100.6331 -101.4560 -102.2037 -105.3488 -109.1026 -109.0989 -107.4749 -104.8670 -102.8030 -103.5507 -104.8498 -108.0778 -112.4135 -112.5203 -110.6088 -108.6745 -106.1603 -105.9137 -107.2405 -109.8001 -113.4228 -113.0923 -110.2773 -108.2419 -105.1639 -103.7721 -105.4410 -108.0687 -111.4123 -111.8836 -109.6328 -108.4446 -106.3180 -105.1799 -108.2172 -112.0628 -115.5992 -117.3029 -115.9863 -114.9622 -113.2282 -111.7301 -114.7141 -118.5584 -120.8898 -122.3160 -120.8799 -118.5522 -116.1605 -113.9791 -116.1600 -119.7953 -121.2879 -122.6408 -121.8246 -118.8642 -116.4864 -114.8559 -116.7991 -120.6962 -122.2463 -123.6608 -123.4986 -119.9207 -117.0609 -115.7448 -116.7765 -119.9875 -115.7209 -114.1553 -116.2031 -117.6097 -119.7618 -121.4008 -119.8152 -117.1170 -113.6830 -112.2653 -114.6618 -116.6917 -119.1908 -122.0633 -120.9781 -118.1650 -115.6973 -114.2878 -116.0726 -118.1395 -120.0797 -122.5696 -120.8608 -116.6347 -113.7519 -111.4066 -111.4189 -113.0047 -114.3357 -116.0472 -114.2111 -109.4880 -106.8607 -104.8788 -104.3922 -106.8181 -109.1725 -111.0574 -110.2268 -106.2804 -104.2106 -102.9737 -102.2671 -105.1633 -108.2871 -109.6134 -108.9610 -105.3972 -102.8278 -101.5173 -100.3967 -103.1452 -106.8297 -107.7076 -107.2818 -104.7613 -102.0733 -101.0619 -100.5768 -103.5846 -108.0955 -109.1186 -108.8854 -107.3507 -104.2176 -102.6550 -102.3422 -104.5799 -108.4875 -108.8930 -107.7139 -106.0088 -101.8064 -98.9510 -98.6799 -100.2458 -103.5218 -104.2870 -103.1855 -102.1186 -98.4187 -95.6733 -96.7841 -97.9071 -100.6357 -101.8665 -100.6173 -99.1634 -95.6152 -92.7988 -94.9038 -98.3113 -102.0764 -105.6847 -106.3571 -106.2776 -103.0482 -99.6574 -98.6170 -99.7043 -100.3794 -102.4957 -103.0302 -101.9405 -100.4568 -98.8986 -101.8166 -104.6274 -106.5581 -109.8074 -110.9051 -108.2899 -105.5237 -103.0561 -103.0419 -107.2973 -108.6776 -110.8121 -111.1307 -106.8839 -102.8501 -100.0885 -98.8283 -100.6752 -103.1139 -106.2642 -108.5632 -106.5388
-106.5218 -107.5977 -106.0409 -103.1656 -100.7435 -98.3140 -98.8253 -102.6570 -106.1355 -108.6138 -108.9905 -106.8620 -104.3830 -99.8335 -99.4030 -102.4573 -105.1422 -106.4494 -106.6865 -104.4192 -101.5795 -99.6982 -99.6939 -103.0952 -106.6878 -108.4855 -109.4186 -107.6071 -104.2793 -102.4236 -102.3412 -104.8401 -108.0165 -109.1262 -109.2936 -107.3152 -103.0015 -100.3455 -99.9131 -101.2570 -103.8497 -104.9158 -104.6414 -102.8185 -98.5916 -95.9751 -96.3866 -98.0664 -101.1881 -103.6840 -104.1874 -103.2122 -100.0694 -97.8859 -99.0346 -101.1014 -104.1249 -107.2767 -107.8250 -106.3788 -103.3503 -100.6711 -101.2495 -103.0619 -105.4047 -108.5867 -109.2418 -107.2883 -104.6075 -102.1638 -102.4968 -104.7463 -107.3004 -110.8149 -112.1597 -110.0984 -107.6608 -105.5652 -105.2253 -107.2480 -109.6460 -112.5001 -113.6375 -110.9372 -107.8116 -105.5764 -104.3236 -105.7851 -108.4343 -111.0429 -112.4520 -110.3683 -107.5684 -106.2854 -105.6342 -107.5720 -111.6261 -115.0483 -117.1120 -116.2207 -113.8595 -112.9379 -112.5108 -113.9829 -118.1281 -121.2728 -122.3984 -121.2985 -118.2479 -116.1722 -115.0813 -115.5052 -118.9986 -121.8954 -122.2598 -121.2258 -118.3954 -115.8007 -114.8696 -115.4421 -118.8840 -122.3362 -122.8361 -122.1559 -119.9959 -116.9229 -115.5349 -115.4678 -116.2232 -115.7869 -114.2834 -115.3904 -118.6249 -120.4056 -120.9420 -119.5948 -116.4722 -113.9153 -112.1773 -113.1120 -116.9177 -119.4452 -120.4417 -120.2668 -117.6727 -115.0511 -113.8858 -114.7585 -118.2719 -120.8526 -121.2938 -120.8084 -117.6856 -113.6687 -111.7743 -111.7542 -113.8427 -115.8531 -115.6542 -114.5620 -111.3516 -106.7552 -104.8490 -105.2949 -107.2178 -109.8844 -110.7152 -110.1121 -107.8614 -103.9058 -102.4247 -103.7337 -105.7225 -108.6125 -110.2170 -109.4498 -107.1397 -103.2799 -101.2726 -102.4742 -104.1306 -106.5772 -108.6521 -107.8118 -105.3252 -102.0757 -100.1218 -101.5099 -103.7247 -106.3558 -109.2390 -108.9701 -106.3957 -103.7419 -101.8377 -102.6685 -104.8717 -107.0272 -109.4413 -108.8786 -105.2663 -102.0806 -99.6774 -99.2569 -101.0623 -103.0236 -105.0119 -104.7514 -101.2274 -98.3577 -96.8211 -96.5854 -97.9394 -100.4615 -102.0939 -101.8282 -98.4472 -95.4969 -94.6745 -95.0055 -98.3258 -103.1734 -106.4045 -107.5519 -106.4288 -103.2477 -101.8133 -99.1218 -99.4891 -102.0326 -103.1578 -103.1832 -102.2293 -100.3902 -100.0361 -101.6063 -103.3019 -107.4952 -110.0032 -109.7741 -108.3817 -105.5095 -103.3440 -103.1132 -106.4640 -109.8372 -111.7239 -110.1720 -107.6295 -103.8657 -100.0977 -99.1494 -100.4536 -103.7371 -106.8563 -107.0849 -106.4515
-105.9944 -106.9042 -105.5765 -102.6618 -99.7446 -97.7792 -98.4661 -101.8479 -105.6488 -108.3697 -108.8538 -106.9390 -104.2450 -100.0942 -99.9870 -102.4793 -105.4115 -107.1001 -107.0242 -104.7805 -101.8157 -99.9120 -100.0472 -102.8036 -106.3997 -108.6757 -109.1171 -107.2287 -104.1902 -102.2386 -102.3166 -104.6088 -107.8612 -109.6959 -109.5857 -107.5184 -103.9041 -101.1470 -100.6263 -102.0601 -104.5813 -106.0767 -105.5300 -103.2840 -99.6599 -96.7895 -96.5873 -98.4600 -101.4452 -103.9324 -104.3461 -102.9588 -100.3573 -98.1671 -98.5814 -101.1029 -104.3597 -107.2481 -108.0042 -106.4731 -103.7642 -101.2513 -101.0496 -103.1739 -105.9196 -108.3999 -109.1092 -107.2991 -104.4271 -102.0001 -101.6643 -103.9190 -107.0046 -109.7555 -111.0543 -109.6770 -106.9691 -104.8698 -104.5010 -106.5379 -109.6152 -112.0976 -113.1414 -111.5266 -108.1961 -105.6099 -104.7344 -106.0648 -108.9062 -111.3184 -112.3326 -111.0980 -108.0738 -105.8755 -105.6785 -107.5088 -111.1394 -114.6422 -116.4813 -116.1844 -113.9634 -112.1086 -112.2389 -114.0626 -117.4630 -120.9466 -122.4047 -121.5402 -118.8090 -115.9748 -115.0667 -115.9600 -118.3381 -121.2754 -122.3931 -121.1287 -118.3760 -115.3692 -114.0859 -114.9238 -117.2599 -120.4892 -122.4125 -121.8820 -119.9722 -117.4798 -115.5791 -114.9112 -114.5686 -114.5925 -115.3525 -116.7191 -119.0637 -121.0922 -121.0258 -119.0479 -115.8529 -113.0564 -112.3255 -113.4625 -116.1911 -119.2949 -120.3308 -119.0953 -116.6480 -114.1191 -113.3458 -114.6846 -117.4386 -120.5972 -121.7606 -120.1850 -117.2950 -114.0756 -112.1110 -112.4778 -114.3124 -116.4792 -117.0605 -114.8805 -111.4092 -107.8983 -105.4823 -105.6952 -107.8503 -110.2980 -111.5428 -110.2516 -107.4377 -104.7283 -102.9399 -103.5812 -106.4309 -109.3221 -110.8779 -110.0610 -107.2741 -104.4054 -102.4445 -102.5896 -105.1535 -107.8499 -109.0654 -108.2957 -105.5124 -102.4594 -100.6393 -100.8671 -103.6119 -106.8456 -108.4531 -108.2355 -106.0762 -103.1749 -101.5526 -101.9141 -104.4451 -107.6278 -109.0313 -108.3948 -105.9323 -102.3270 -99.8913 -99.7023 -101.4825 -104.1561 -105.4203 -104.5867 -102.2568 -98.8777 -96.5826 -96.9933 -98.3771 -101.0462 -102.5871 -101.8303 -99.5885 -96.6483 -94.7948 -96.0624 -99.6257 -103.8395 -107.2029 -108.0354 -107.2520 -104.3505 -101.8396 -99.9949 -101.0611 -102.4690 -103.6175 -103.8916 -102.7453 -101.0621 -101.4750 -101.5081 -104.0570 -107.0725 -109.4041 -110.0450 -108.1488 -105.2369 -103.0886 -102.8871 -107.1159 -109.8247 -111.3236 -111.0327 -108.0745 -103.7574 -100.5546 -99.4929 -101.0139 -103.9700 -106.3765 -107.5087 -106.5600
-105.5753 -106.3171 -105.2263 -102.2966 -98.8049 -97.2185 -98.1322 -100.9917 -105.0155 -108.0266 -108.6071 -106.9695 -104.0463 -100.1294 -100.5425 -102.5472 -105.4864 -107.7334 -107.4983 -105.2277 -102.2052 -100.1284 -100.5233 -102.8323 -106.0062 -108.8287 -109.1432 -106.8773 -104.0615 -102.0386 -102.1943 -104.4758 -107.4306 -109.8729 -110.1005 -107.6355 -104.4247 -101.9830 -101.2940 -102.8405 -105.2408 -106.9695 -106.8057 -104.0413 -100.4108 -97.9087 -97.1802 -98.7894 -101.7946 -104.1541 -104.7600 -103.0606 -100.2111 -98.4904 -98.5778 -100.6675 -104.3076 -107.2594 -108.0815 -106.6673 -103.7958 -101.6485 -101.4040 -102.9286 -105.9896 -108.6824 -109.0684 -107.3344 -104.3529 -101.8359 -101.4450 -103.0552 -106.1512 -109.2948 -110.2083 -108.8403 -106.4321 -104.2033 -103.8661 -105.7247 -108.8207 -111.9436 -112.9738 -111.3403 -108.6277 -106.0305 -104.9484 -106.3047 -109.0455 -111.7742 -112.8576 -111.3230 -108.6559 -106.4107 -105.5491 -107.2537 -110.7862 -114.2375 -116.2462 -115.7961 -113.7942 -112.1391 -111.6582 -113.3280 -116.9867 -120.4399 -122.1999 -121.6278 -119.0773 -116.4770 -115.0492 -115.4631 -118.0402 -120.8698 -122.0481 -121.2772 -118.6553 -115.5699 -113.7015 -113.6231 -115.7373 -118.8805 -120.9123 -121.4662 -120.6069 -118.6169 -116.7994 -115.6164 -115.2002 -115.7938 -116.8160 -118.4096 -120.5154 -121.4508 -120.5218 -118.1253 -114.9390 -112.6824 -112.2874 -113.7081 -116.6976 -119.2590 -119.6385 -118.1875 -115.5615 -113.1726 -112.6960 -114.2464 -117.3536 -120.4239 -121.2216 -119.7558 -116.9849 -113.8824 -112.3466 -113.0418 -115.1467 -117.3813 -117.6654 -115.4693 -112.0802 -108.4356 -106.1718 -106.5811 -108.6988 -111.0531 -112.0003 -110.5135 -107.7286 -104.8896 -103.1673 -104.1005 -106.9864 -109.8516 -111.3727 -110.4802 -107.7858 -104.9572 -103.0690 -103.4938 -106.1082 -108.6679 -109.8010 -108.8503 -105.9123 -102.7576 -100.8261 -101.0790 -103.7480 -106.7292 -108.1822 -107.8027 -105.4786 -102.5664 -101.0014 -101.5045 -104.1693 -107.3712 -108.8508 -108.2949 -105.8712 -102.4238 -100.1915 -100.1852 -102.1057 -104.8020 -106.0614 -105.1704 -102.7193 -99.3246 -97.0388 -97.4130 -98.9944 -101.7172 -103.3367 -102.6632 -100.4607 -97.6656 -95.9211 -97.1387 -100.6699 -104.7894 -107.9903 -108.7104 -107.6740 -104.8861 -102.5371 -100.7859 -101.9342 -103.3874 -104.3210 -104.5241 -103.3233 -101.5453 -101.7888 -101.6682 -104.1193 -107.1873 -109.3187 -109.7772 -107.8995 -104.9594 -102.8872 -102.7495 -107.0103 -109.9606 -111.4739 -111.0535 -108.2814 -104.0462 -100.8181 -99.8465 -101.3349 -104.3291 -106.6605 -107.4246 -106.4319
-105.2684 -105.8634 -104.9991 -102.0860 -98.0089 -96.6706 -97.8296 -100.1630 -104.2844 -107.6012 -108.2680 -106.9390 -103.8316 -99.9445 -100.9580 -102.6733 -105.3937 -108.2354 -108.0623 -105.7345 -102.7341 -100.3700 -100.9864 -103.1896 -105.6841 -108.8281 -109.4439 -106.7181 -103.9164 -101.8692 -101.9458 -104.4245 -107.0001 -109.5660 -110.6012 -107.9392 -104.5944 -102.6476 -101.9230 -103.5246 -105.9578 -107.5491 -108.0296 -105.3463 -101.0680 -98.8674 -98.2035 -99.2495 -102.2092 -104.4218 -105.1231 -103.6929 -100.1686 -98.3369 -98.9010 -100.4122 -103.8114 -107.1683 -108.0389 -106.9283 -103.9367 -101.4441 -101.7846 -103.1411 -105.5312 -108.7560 -109.3926 -107.4446 -104.5076 -101.5720 -101.2120 -102.9146 -105.1140 -108.3798 -109.9930 -108.2054 -105.7110 -103.6014 -103.0647 -105.1742 -107.9342 -110.9340 -113.0874 -111.5421 -108.4365 -106.4035 -105.3036 -106.4771 -109.2607 -111.7012 -113.4803 -112.4110 -108.9002 -106.7890 -106.1552 -107.0164 -110.3357 -113.7493 -115.8990 -116.0985 -113.5518 -111.5354 -111.6819 -112.6679 -115.7104 -119.7593 -121.8204 -121.8084 -119.4683 -116.3409 -115.3449 -115.4896 -116.8372 -120.1425 -122.0680 -121.4024 -119.2534 -115.8813 -113.6495 -113.2463 -113.6850 -116.3759 -119.5934 -120.5037 -120.5190 -119.8951 -118.5759 -117.9667 -117.3303 -117.4948 -119.4296 -120.5072 -120.8228 -121.2326 -119.6423 -116.7271 -113.9768 -111.9734 -112.7402 -115.0467 -116.8746 -119.0639 -119.5720 -117.0496 -114.2225 -112.1872 -112.0569 -114.5066 -117.1297 -119.5929 -121.1978 -119.2536 -115.8335 -113.6249 -112.5577 -113.7131 -116.0617 -117.6746 -118.5299 -116.5300 -112.0027 -108.8964 -107.4546 -107.5288 -109.7555 -111.7844 -112.5416 -111.4420 -107.6458 -104.5877 -104.1040 -104.6989 -107.1970 -110.4660 -111.7367 -111.0344 -108.1139 -104.7337 -104.0306 -104.7617 -106.4286 -109.5184 -110.8297 -109.3426 -106.3994 -102.7517 -101.1727 -102.0687 -103.5958 -106.4414 -108.6208 -107.3879 -104.6982 -101.9678 -100.3509 -101.5196 -103.7952 -106.4642 -109.0759 -108.3433 -105.1180 -102.4417 -100.5228 -100.6753 -102.8490 -104.9931 -106.8676 -106.3898 -102.7155 -99.6188 -98.1054 -97.9312 -100.3239 -102.4578 -104.1110 -104.1486 -101.2284 -98.1427 -97.6183 -98.4245 -101.2793 -105.7579 -108.6760 -110.0808 -108.0596 -104.6643 -103.3465 -102.0623 -102.2084 -104.1576 -105.4137 -105.1567 -104.0321 -101.8326 -102.0870 -102.6164 -104.0221 -106.8864 -109.9002 -109.6463 -107.3472 -104.6790 -102.5090 -102.9167 -106.9141 -109.2965 -111.8874 -111.4351 -107.7618 -104.1676 -101.2172 -100.1689 -101.8328 -104.2647 -106.9868 -108.1579 -105.9254
-105.0638 -105.5555 -104.8935 -102.0308 -97.4280 -96.1825 -97.5592 -99.4265 -103.5188 -107.1195 -107.8682 -106.8397 -103.6398 -99.5925 -101.1422 -102.8287 -105.1938 -108.5253 -108.6417 -106.2704 -103.3630 -100.6808 -101.3359 -103.7659 -105.6052 -108.6654 -109.8705 -106.8614 -103.8245 -101.7743 -101.6028 -104.3404 -106.7799 -108.9369 -110.7844 -108.5010 -104.6483 -102.9916 -102.4648 -104.0294 -106.7402 -108.0304 -108.8219 -106.9939 -102.0862 -99.4891 -99.3429 -100.0114 -102.6963 -104.8843 -105.3241 -104.4950 -100.8046 -97.8969 -98.9184 -100.6317 -103.2253 -106.7988 -107.8955 -106.9785 -104.4399 -101.1379 -101.3830 -103.6901 -105.3542 -108.2063 -109.7257 -107.7603 -104.8539 -101.6570 -100.5225 -102.8929 -104.9750 -107.0264 -109.4541 -108.2865 -105.1173 -103.0345 -102.1360 -104.2606 -107.6680 -109.7598 -112.1320 -112.2564 -108.6666 -106.1544 -105.5871 -106.4875 -109.5904 -111.9382 -113.1768 -113.6154 -110.3808 -106.7126 -106.4357 -107.4088 -109.9134 -113.4580 -115.2466 -115.9949 -114.5403 -111.0124 -110.5629 -112.5945 -114.6918 -118.3323 -121.1918 -121.4934 -120.2966 -116.8540 -114.3987 -115.5043 -116.6997 -118.4426 -121.4023 -121.8056 -120.0069 -117.1028 -113.5058 -112.6260 -113.2910 -113.6346 -116.3912 -119.3378 -119.7903 -120.0371 -119.7600 -119.3886 -120.1561 -119.7419 -119.7974 -121.6773 -121.2641 -119.2638 -117.6978 -115.0729 -113.1389 -112.5504 -112.7457 -115.8819 -118.9406 -118.7296 -118.0988 -116.4298 -113.1027 -111.4627 -111.5753 -113.8650 -118.0761 -119.6555 -119.2027 -118.6627 -115.6634 -112.6476 -112.5652 -114.0091 -117.0463 -119.1967 -118.0684 -116.4855 -113.6708 -109.1592 -107.7227 -109.1071 -111.0303 -113.2646 -113.0441 -110.9511 -108.9261 -105.3075 -103.2721 -105.6120 -108.4547 -110.7617 -112.1141 -110.6258 -108.4730 -105.9754 -103.4545 -105.0280 -108.5392 -110.1069 -111.0072 -109.9576 -106.6628 -103.8209 -101.3477 -101.4853 -105.1390 -107.2241 -107.4505 -107.2962 -104.5892 -101.4125 -100.0439 -100.3210 -103.7887 -107.3438 -107.6673 -107.4363 -105.8370 -102.0943 -100.3410 -100.9285 -103.1930 -106.6342 -107.2640 -105.7789 -104.3086 -100.7214 -97.8200 -98.8046 -101.2129 -104.2923 -105.3856 -104.0063 -102.3984 -100.3335 -97.6411 -98.9375 -103.0422 -106.4369 -109.8938 -109.8647 -107.7995 -106.0265 -103.4950 -103.0117 -103.9090 -105.4390 -105.4267 -105.9114 -104.5510 -102.8692 -102.9662 -101.8490 -104.6279 -108.3942 -109.1783 -109.1262 -107.6487 -104.3545 -102.5107 -102.2086 -106.2725 -110.4381 -111.6098 -110.1319 -108.3845 -104.5099 -100.9188 -100.4027 -101.7583 -105.1804 -107.8332 -107.0653 -106.0745
-104.9389 -105.3899 -104.8980 -102.1166 -97.1133 -95.8040 -97.3197 -98.8302 -102.7887 -106.6157 -107.4496 -106.6754 -103.4968 -99.1606 -101.0479 -102.9477 -104.9551 -108.5735 -109.1492 -106.8015 -104.0313 -101.0992 -101.5414 -104.3769 -105.8553 -108.4444 -110.2574 -107.3142 -103.8785 -101.7893 -101.2596 -104.1015 -106.8008 -108.3114 -110.4963 -109.1445 -104.8560 -103.0306 -102.8395 -104.3084 -107.4353 -108.6700 -109.1635 -108.4570 -103.6862 -100.0413 -100.2197 -101.0282 -103.2859 -105.6061 -105.5981 -104.9984 -102.0677 -97.9230 -98.3300 -100.9345 -103.0107 -106.2187 -107.7021 -106.6959 -104.9078 -101.4449 -100.3641 -103.5709 -105.8348 -107.5708 -109.5593 -108.1957 -105.1898 -102.2805 -100.0204 -102.0170 -105.4285 -106.5267 -108.1671 -108.3937 -105.1432 -102.5789 -101.5188 -102.7540 -107.0827 -109.6877 -110.6091 -111.8918 -109.7430 -106.0984 -105.4036 -106.3512 -109.3245 -112.7690 -113.2625 -113.3606 -112.3243 -108.0329 -106.0147 -107.5796 -109.7975 -113.2165 -115.3242 -115.1191 -114.9291 -112.3769 -109.3804 -111.0916 -114.2880 -117.0058 -120.1818 -120.9419 -120.0186 -118.3381 -114.6162 -113.6317 -116.3905 -118.0014 -119.7301 -121.5719 -120.5775 -118.5238 -115.2968 -111.7623 -112.0554 -113.1621 -113.1879 -115.7017 -118.1892 -118.7867 -119.5824 -119.3437 -119.5723 -121.1338 -120.1549 -119.0145 -119.6473 -117.8044 -114.9522 -113.4031 -112.1389 -113.2536 -115.3244 -116.2107 -118.8121 -120.1721 -117.1478 -114.2490 -112.2368 -110.8147 -112.2272 -114.2312 -116.7261 -120.1839 -119.4879 -116.0203 -114.3968 -112.8401 -112.4959 -114.7929 -116.9928 -119.4806 -120.0647 -115.9919 -112.5107 -111.0005 -109.0997 -109.8388 -112.4656 -113.9999 -114.6960 -111.9969 -107.4455 -106.0464 -105.3956 -105.3364 -108.7636 -111.7711 -112.4132 -111.3548 -107.5924 -105.1908 -105.6587 -105.6509 -107.7547 -111.6576 -112.0860 -110.1251 -106.9762 -103.2306 -102.6083 -103.3143 -104.0232 -107.4143 -109.1626 -106.5740 -103.7211 -100.9679 -99.5435 -101.2356 -103.0073 -105.6348 -108.8892 -107.4827 -103.8694 -102.0713 -100.6678 -101.3828 -104.0268 -105.9266 -108.2289 -108.0031 -103.4573 -100.5584 -99.8909 -99.5915 -101.9539 -104.8332 -106.3778 -107.0405 -103.1191 -99.3078 -99.5917 -100.7358 -103.4906 -107.5932 -109.9707 -110.1865 -108.5324 -104.6012 -103.4913 -105.3332 -103.7752 -105.1198 -106.9003 -106.6646 -105.4294 -103.1757 -102.4252 -103.8015 -105.6996 -106.9623 -109.9088 -110.1777 -106.8765 -104.0297 -101.8213 -102.2404 -107.3926 -109.0303 -110.6032 -111.6305 -107.9102 -103.3393 -101.2461 -100.5210 -102.6443 -105.4385 -106.6640 -108.2839 -107.1638
-104.8615 -105.3482 -104.9925 -102.3169 -97.0897 -95.5818 -97.1101 -98.4006 -102.1609 -106.1293 -107.0600 -106.4649 -103.4128 -98.7495 -100.6873 -102.9468 -104.7284 -108.4040 -109.5059 -107.2912 -104.6692 -101.6309 -101.6449 -104.8353 -106.3865 -108.3267 -110.5036 -107.9806 -104.1538 -101.9368 -101.0376 -103.6733 -106.9138 -107.9854 -109.8543 -109.5788 -105.3348 -102.9401 -102.9939 -104.3770 -107.8296 -109.5144 -109.3874 -109.3156 -105.5971 -100.9622 -100.7397 -102.0473 -103.9822 -106.4806 -106.2865 -105.1756 -103.3162 -98.8998 -97.6335 -100.7319 -103.1815 -105.7160 -107.5036 -106.3341 -104.8033 -102.2516 -99.7631 -102.3287 -106.1808 -107.5543 -109.0009 -108.4812 -105.4165 -102.9253 -100.4590 -100.7176 -105.0244 -107.1958 -107.2738 -107.7740 -105.5342 -102.3881 -101.3238 -101.5980 -105.2926 -109.8153 -110.3727 -110.4125 -110.1526 -106.9244 -105.1270 -106.1658 -108.5050 -112.7322 -114.6396 -113.1689 -112.5245 -110.3265 -106.7158 -107.0431 -109.6568 -112.6456 -115.7516 -115.4759 -113.9047 -113.2824 -110.5075 -109.2082 -112.5851 -116.0702 -118.9160 -120.7295 -119.4206 -118.0960 -116.4371 -113.1984 -113.8051 -117.3110 -118.9655 -120.4772 -120.9084 -119.0371 -117.3023 -113.9814 -110.6174 -111.4987 -112.5105 -112.2961 -114.3234 -116.1024 -116.9950 -118.1602 -117.4481 -117.5083 -118.9880 -117.2059 -115.0174 -114.8941 -113.4202 -112.3123 -112.7437 -113.4807 -116.7136 -119.4389 -118.5373 -118.2096 -117.2478 -113.2814 -110.8492 -110.5974 -111.9427 -115.7787 -117.7701 -117.7407 -118.5603 -116.3810 -112.3294 -111.6888 -112.8396 -115.3029 -118.6399 -119.1310 -118.7326 -117.7514 -113.0669 -109.7391 -110.6244 -111.9098 -113.9578 -115.5069 -114.2597 -112.7871 -109.6803 -105.0684 -105.0884 -107.9208 -109.6496 -111.9175 -112.5450 -110.7040 -108.8034 -105.4698 -103.8250 -107.1959 -110.0166 -111.0207 -112.2503 -110.6325 -107.2822 -104.5118 -101.8958 -103.1475 -107.0056 -107.7391 -107.6651 -107.3402 -103.8337 -100.6225 -99.3538 -99.8186 -103.8766 -106.9707 -106.5004 -106.5119 -105.0229 -101.2386 -100.1696 -101.4137 -104.1582 -108.0387 -108.3289 -106.4775 -105.4917 -102.1380 -99.1737 -100.6323 -103.2405 -106.0868 -107.8454 -105.8971 -104.0517 -102.7190 -99.8523 -100.5770 -104.9603 -107.9961 -110.0435 -109.8526 -107.1981 -105.9227 -104.4534 -103.4178 -104.6234 -107.2490 -106.6722 -107.0125 -105.7432 -103.7465 -104.4226 -103.3704 -104.8760 -109.4703 -110.5743 -108.8010 -107.1227 -103.9912 -102.0613 -102.4876 -105.6122 -109.3863 -112.2466 -109.7888 -106.7046 -104.2500 -101.0275 -100.6049 -102.3941 -104.8964 -108.5479 -108.5399 -105.1205
-104.7931 -105.3987 -105.1500 -102.5967 -97.3532 -95.5528 -96.9324 -98.1422 -101.6899 -105.7006 -106.7465 -106.2427 -103.3858 -98.4520 -100.1315 -102.7513 -104.5295 -108.0818 -109.6612 -107.7043 -105.2136 -102.2358 -101.7320 -105.0223 -107.0290 -108.4450 -110.6162 -108.7095 -104.6723 -102.2248 -101.0307 -103.1493 -106.9025 -108.0528 -109.1890 -109.6159 -105.9791 -102.9402 -102.9497 -104.2997 -107.8081 -110.3306 -109.8685 -109.5982 -107.2474 -102.4186 -101.1659 -102.8223 -104.7299 -107.3073 -107.4586 -105.5010 -104.0194 -100.4868 -97.6425 -99.9937 -103.2902 -105.4929 -107.3155 -106.2555 -104.2058 -102.6963 -100.1253 -100.8100 -105.4323 -107.9213 -108.6402 -108.4988 -105.6577 -103.0611 -101.4038 -100.3276 -103.4932 -107.5785 -107.6974 -107.0206 -105.6494 -102.4916 -101.1419 -101.4071 -103.3923 -108.4559 -111.0865 -109.8590 -109.2433 -107.6534 -105.3103 -105.9194 -108.0168 -111.4389 -115.3354 -114.7780 -112.2013 -111.1105 -108.6494 -107.0841 -109.2077 -112.0203 -115.1529 -116.7743 -114.3021 -112.2964 -111.5965 -109.5528 -110.2913 -114.2822 -117.4520 -119.9583 -120.0265 -117.3555 -116.2046 -114.8347 -112.6197 -114.4039 -117.8240 -119.4530 -120.7019 -119.8870 -117.6895 -116.4089 -113.1464 -110.0023 -110.7954 -111.3534 -111.0408 -112.3689 -113.1679 -114.0922 -115.2542 -113.8899 -113.4126 -114.6023 -112.9929 -111.3383 -111.9476 -112.3758 -114.0282 -116.2071 -117.1377 -119.4960 -120.4762 -117.0621 -114.2679 -112.7154 -110.6770 -111.0592 -112.9057 -115.1524 -118.6540 -118.8108 -115.5900 -114.1509 -112.6950 -111.0671 -112.7613 -115.6033 -118.5109 -120.8139 -118.6729 -115.2209 -113.9193 -111.6542 -110.6015 -113.2138 -115.5718 -116.8979 -116.2302 -111.9912 -108.9663 -107.8958 -106.0836 -107.3644 -111.3148 -112.9885 -112.9538 -110.7948 -107.0191 -106.0180 -106.0681 -106.1165 -109.7626 -113.1511 -112.4684 -110.4327 -107.0616 -103.9908 -104.0567 -104.3306 -105.5352 -109.2074 -109.5539 -106.1900 -103.3260 -100.4483 -99.4118 -101.2209 -102.7691 -105.5541 -108.3605 -106.1550 -102.6150 -101.2892 -100.4057 -101.8043 -104.8841 -106.8785 -109.1594 -108.8835 -104.2741 -101.5679 -101.5365 -101.7122 -104.1616 -106.9053 -107.8067 -108.0201 -104.9673 -100.6681 -100.8371 -102.6592 -104.3506 -107.9316 -110.0687 -109.7123 -108.2731 -104.6085 -102.9222 -105.7021 -105.4230 -105.9488 -107.4362 -107.8646 -106.4232 -106.2339 -103.2999 -104.2651 -107.6960 -108.7218 -109.8033 -110.4237 -107.2089 -103.6913 -101.7596 -101.5365 -107.0478 -110.0039 -109.7560 -109.8073 -107.8522 -102.9310 -100.3938 -100.4868 -102.4677 -106.4035 -107.7690 -107.0278 -106.9574
-104.6937 -105.5000 -105.3389 -102.9165 -97.8730 -95.7384 -96.7929 -98.0396 -101.4103 -105.3664 -106.5499 -106.0560 -103.4084 -98.3345 -99.4966 -102.3220 -104.3355 -107.6895 -109.6051 -108.0123 -105.6234 -102.8338 -101.8842 -104.9270 -107.5547 -108.8254 -110.6951 -109.3653 -105.3887 -102.6471 -101.2617 -102.7103 -106.6350 -108.3614 -108.8443 -109.3213 -106.5536 -103.1550 -102.8038 -104.1484 -107.4444 -110.7779 -110.6815 -109.7350 -108.2353 -104.1126 -101.8480 -103.3172 -105.4327 -107.9585 -108.8011 -106.4494 -104.3389 -101.8783 -98.6086 -99.3523 -102.9787 -105.4553 -107.1390 -106.5153 -103.7860 -102.2973 -100.7750 -100.1154 -103.7909 -107.7325 -108.6824 -108.4103 -106.0372 -102.9126 -101.7715 -101.0187 -102.2603 -106.6300 -108.5394 -107.1810 -105.5393 -102.7807 -100.8012 -101.4147 -102.7596 -106.2625 -110.6373 -110.6961 -108.6356 -107.4169 -105.6562 -105.5478 -107.8715 -110.4715 -114.1780 -116.2677 -113.6784 -110.9523 -109.6868 -108.1126 -108.8802 -111.6873 -114.1501 -116.6412 -116.2464 -112.5743 -110.7841 -110.2770 -109.6490 -111.9725 -115.6341 -118.2121 -119.9735 -118.5127 -115.3679 -114.5291 -113.5658 -112.6063 -114.9519 -117.8290 -119.4970 -120.5189 -118.9479 -116.8148 -115.8146 -112.7819 -109.9351 -110.1410 -110.0730 -109.7375 -110.3160 -110.1231 -110.8050 -111.8529 -110.4176 -109.9323 -111.3935 -111.2745 -111.5476 -113.4668 -115.2512 -117.9899 -119.7909 -118.7258 -118.2091 -117.1008 -113.1731 -110.7396 -110.8136 -111.7855 -114.6129 -116.7728 -117.0960 -117.8045 -116.1130 -111.9244 -110.5728 -111.5326 -113.2320 -116.5669 -118.7357 -119.2297 -119.2095 -115.9284 -111.8886 -111.8089 -113.0739 -114.5565 -117.0558 -117.5817 -116.3269 -114.0819 -109.4216 -106.6571 -108.2551 -109.9148 -111.5575 -113.6039 -112.9743 -110.8102 -108.0785 -104.7606 -105.2157 -108.7414 -110.5784 -112.0758 -112.9379 -110.5092 -107.3110 -104.5873 -102.9784 -105.3997 -108.4831 -108.6864 -108.7175 -107.4187 -103.3495 -100.3958 -99.3607 -100.4158 -104.3816 -106.6359 -105.9532 -105.6113 -103.6117 -100.2578 -99.9048 -101.7721 -104.9715 -108.7695 -109.0317 -107.1114 -105.9276 -103.1335 -100.9023 -102.7028 -105.6042 -108.2295 -109.6043 -107.3065 -104.6024 -103.2566 -101.1225 -101.5427 -105.6507 -108.7403 -110.1579 -109.6492 -106.5759 -104.8293 -104.5776 -104.2174 -104.7269 -107.8317 -107.6237 -107.7620 -106.6033 -105.7453 -104.9881 -105.4783 -106.3142 -109.8247 -111.9820 -109.7376 -106.7769 -103.8671 -101.7451 -102.7598 -106.5176 -108.4275 -111.2007 -110.1882 -105.6213 -102.5286 -100.6157 -100.3651 -102.9452 -105.3077 -107.4103 -108.9274 -106.2166
-104.5257 -105.6052 -105.5260 -103.2381 -98.5948 -96.1402 -96.7022 -98.0630 -101.3319 -105.1551 -106.4991 -105.9585 -103.4766 -98.4264 -98.9184 -101.6741 -104.0967 -107.3005 -109.3700 -108.1993 -105.8885 -103.3287 -102.1348 -104.6389 -107.7678 -109.3588 -110.8344 -109.8850 -106.2074 -103.1858 -101.6747 -102.5259 -106.1588 -108.6262 -108.9657 -108.9879 -106.8829 -103.5470 -102.6789 -103.9645 -106.9496 -110.6804 -111.5245 -110.1654 -108.6540 -105.5236 -102.8707 -103.7067 -106.0087 -108.4638 -109.8969 -107.9750 -104.9388 -102.6776 -99.9692 -99.4193 -102.4213 -105.3581 -106.9922 -106.8329 -104.0149 -101.6040 -100.7442 -100.2035 -102.3587 -106.6134 -108.6397 -108.3825 -106.4564 -103.0861 -101.3969 -101.5335 -102.2268 -105.2660 -108.4534 -108.0421 -105.8340 -103.2098 -100.7087 -100.8692 -102.7825 -105.1189 -108.9091 -111.0370 -109.2898 -107.0965 -105.6617 -105.1354 -107.2487 -110.2805 -112.9757 -115.7879 -115.5733 -112.1548 -109.8280 -108.8435 -108.9173 -111.3012 -113.8856 -115.6687 -116.7956 -114.6884 -110.9427 -109.5925 -109.5437 -110.4900 -113.5681 -116.4484 -118.3270 -119.0788 -116.7188 -113.7693 -113.0735 -112.5581 -112.7676 -115.1640 -117.4518 -119.1766 -120.0359 -118.3502 -116.5090 -115.5385 -112.9351 -110.5201 -110.0082 -109.3744 -109.0521 -109.1253 -108.4203 -108.9277 -110.0975 -109.5594 -109.9051 -111.9955 -113.4733 -115.2612 -117.3221 -118.3639 -119.5599 -119.3235 -116.2522 -113.8547 -112.5722 -110.9112 -111.1236 -113.1731 -115.3761 -117.8559 -118.1612 -115.6139 -113.6761 -111.9756 -110.0023 -110.8693 -113.8893 -116.8834 -119.4902 -119.3372 -116.8041 -115.0822 -113.2111 -111.6612 -113.4644 -116.5594 -118.4611 -119.0469 -116.7442 -113.0723 -110.8490 -108.8423 -108.2478 -111.0976 -113.8243 -114.3288 -113.3341 -110.1980 -107.1378 -106.2459 -105.9810 -107.6420 -111.6271 -113.4383 -112.3095 -110.0730 -106.7130 -104.5949 -104.8556 -105.6294 -107.9310 -110.6897 -109.7177 -106.3744 -103.3094 -100.5157 -99.9902 -101.7706 -103.6454 -106.2115 -107.5670 -104.9356 -101.7177 -100.3512 -100.0682 -102.1401 -105.5206 -107.8147 -109.4941 -108.7587 -104.8880 -102.5161 -102.7800 -103.9075 -106.6386 -109.2547 -109.6979 -108.9246 -105.9886 -102.0545 -101.6308 -103.7548 -105.9266 -108.7582 -110.2688 -109.1840 -107.2695 -104.4356 -102.7145 -105.0980 -106.1339 -106.8663 -107.5095 -108.2703 -106.7599 -106.5142 -104.6059 -105.0003 -108.5817 -110.9606 -110.9437 -110.2714 -107.5301 -103.8548 -102.1517 -102.1520 -106.5484 -110.1537 -110.5118 -108.3732 -106.0623 -102.4927 -99.7245 -100.1635 -102.3085 -105.7025 -108.4288 -107.4218 -105.2332
-104.2588 -105.6667 -105.6793 -103.5283 -99.4485 -96.7383 -96.6735 -98.1744 -101.4387 -105.0820 -106.6074 -106.0022 -103.5975 -98.7208 -98.5228 -100.8809 -103.7587 -106.9591 -109.0206 -108.2663 -106.0309 -103.6423 -102.4474 -104.2983 -107.5806 -109.8363 -111.1375 -110.2934 -107.0211 -103.8151 -102.1670 -102.6569 -105.6777 -108.6226 -109.4182 -108.9514 -106.9969 -103.9744 -102.6610 -103.7533 -106.5201 -110.1718 -111.9726 -110.9484 -108.9777 -106.3605 -103.9609 -104.1759 -106.4317 -108.9299 -110.6006 -109.5408 -106.2361 -103.2864 -101.0128 -100.1281 -102.1185 -105.1224 -106.9129 -106.9813 -104.6469 -101.4898 -100.0753 -100.0978 -101.6650 -105.2106 -108.0367 -108.3266 -106.7159 -103.6469 -101.1495 -101.1397 -102.4685 -104.7198 -107.6641 -108.5373 -106.6445 -103.8523 -101.1623 -100.3149 -102.2005 -104.9016 -107.7343 -110.2013 -109.9664 -107.5829 -105.6240 -104.8474 -106.1921 -109.5645 -112.6577 -114.8928 -115.8669 -113.9559 -110.7979 -109.1004 -108.9621 -110.6335 -113.5530 -115.5301 -116.3362 -115.7535 -112.7852 -109.6945 -108.7815 -109.4096 -111.5520 -114.6527 -116.7918 -117.8874 -117.5739 -115.0378 -112.5810 -111.8036 -111.7117 -112.7437 -114.9379 -116.8675 -118.5514 -119.3067 -118.1145 -116.7155 -115.6478 -113.6518 -111.8242 -110.8715 -109.9979 -109.7370 -109.7305 -109.2985 -109.9210 -111.3192 -112.0279 -113.2605 -115.3245 -116.9453 -118.3214 -118.8550 -117.8748 -116.6950 -114.9980 -112.2742 -110.8423 -111.3579 -112.6687 -114.9136 -117.0175 -117.6681 -117.3617 -115.3975 -111.9480 -109.9996 -110.2418 -111.6682 -114.5289 -117.4578 -118.7889 -118.6949 -116.6047 -113.4047 -112.2033 -113.1062 -114.8589 -117.5850 -119.6350 -119.4012 -117.4473 -113.9173 -110.4090 -109.7027 -110.9795 -112.6362 -114.6616 -115.3088 -113.4661 -110.4952 -107.2300 -105.4054 -106.8105 -109.4724 -111.5435 -113.0624 -112.5040 -109.6111 -106.5849 -104.4954 -104.5282 -107.1586 -109.5720 -110.2364 -109.7168 -107.1238 -103.2309 -100.7532 -100.3194 -102.0535 -105.2366 -106.8534 -106.2536 -104.7542 -102.0790 -99.6454 -99.8985 -102.2958 -105.7510 -108.8984 -109.2892 -107.5219 -105.5753 -103.4676 -102.6977 -104.8152 -107.9568 -110.4097 -111.1410 -108.9732 -105.7711 -103.7491 -102.6975 -103.6400 -106.9177 -109.6892 -110.4669 -109.2704 -106.2291 -103.8268 -103.7114 -104.8617 -105.2092 -107.4431 -107.9861 -108.0292 -106.7385 -105.8750 -104.9666 -106.4845 -108.5347 -110.8414 -112.3503 -110.7373 -107.1873 -104.0342 -102.1765 -102.9286 -107.5385 -109.3945 -110.1531 -109.1464 -105.3379 -101.3184 -99.5291 -99.9261 -102.5613 -105.7707 -107.2198 -107.2766 -105.8814
-103.8731 -105.6417 -105.7707 -103.7629 -100.3567 -97.4925 -96.7204 -98.3351 -101.6917 -105.1468 -106.8703 -106.2273 -103.7924 -99.1829 -98.3987 -100.0619 -103.2883 -106.6717 -108.6346 -108.2331 -106.0962 -103.7447 -102.7282 -104.0272 -107.0420 -110.0324 -111.5668 -110.6699 -107.7515 -104.5030 -102.6428 -103.0178 -105.4251 -108.3341 -109.8858 -109.3700 -107.1260 -104.3231 -102.7666 -103.5118 -106.2060 -109.5908 -111.8445 -111.7218 -109.6150 -106.8052 -104.7460 -104.7210 -106.7214 -109.3849 -111.1159 -110.6632 -107.9330 -104.3764 -101.6764 -100.8791 -102.3003 -104.9255 -106.9257 -107.0793 -105.1452 -102.0604 -99.7040 -99.3604 -101.1019 -104.2033 -107.0642 -108.0430 -106.7869 -104.0933 -101.4776 -100.6047 -101.9247 -104.5638 -107.2426 -108.4839 -107.4169 -104.7196 -101.9027 -100.4707 -101.3948 -104.1978 -107.3725 -109.5920 -109.9036 -108.2585 -106.0003 -104.7386 -105.4301 -108.1763 -111.8093 -114.6465 -115.7116 -114.7033 -112.2025 -109.8335 -108.9796 -110.0256 -112.5409 -115.1909 -116.5429 -116.0918 -113.9822 -111.0336 -108.8010 -108.3448 -109.7097 -112.3561 -115.1162 -116.8139 -117.0499 -115.8283 -113.6425 -111.6674 -110.7203 -110.9467 -112.2977 -114.2685 -116.1655 -117.6430 -118.3195 -118.0217 -117.1924 -116.1109 -114.8185 -113.6434 -112.7464 -112.1132 -111.9095 -112.0400 -112.3767 -113.1617 -114.3066 -115.4553 -116.5666 -117.4280 -117.6592 -117.1817 -115.9107 -114.0158 -112.2539 -111.1747 -111.0478 -112.2100 -114.3639 -116.5846 -118.0302 -117.9493 -116.1704 -113.5281 -111.0379 -109.6351 -110.1890 -112.5394 -115.5160 -117.8775 -118.5599 -117.2864 -114.9889 -112.8941 -112.0894 -113.3488 -116.1620 -118.9908 -120.4850 -119.8210 -117.1816 -113.9415 -111.5385 -110.9047 -112.3178 -114.7006 -116.2729 -115.9755 -113.6614 -110.2030 -107.3189 -106.2660 -107.3261 -109.9462 -112.4911 -113.2555 -111.8508 -108.9750 -106.0190 -104.6089 -105.3411 -107.5877 -110.1037 -111.2018 -109.8605 -106.7356 -103.3192 -101.1191 -101.1832 -103.1747 -105.6817 -107.2646 -106.7973 -104.3058 -101.3586 -99.6630 -100.1285 -102.7413 -106.2045 -108.7333 -109.2939 -107.7410 -105.0973 -103.3160 -103.6181 -105.8578 -109.0195 -111.4059 -111.6446 -109.7289 -106.6321 -103.9681 -103.3883 -105.1031 -107.8870 -110.2178 -110.7278 -109.0129 -106.1517 -103.7233 -103.0864 -104.8607 -105.7534 -107.2221 -107.7358 -107.9148 -106.4605 -105.8124 -105.0817 -106.4185 -109.2586 -111.8452 -112.4410 -110.7303 -107.5013 -104.2452 -102.6751 -103.4024 -107.7110 -110.0342 -110.5332 -108.4349 -104.7342 -101.1271 -99.1535 -99.7483 -102.3622 -105.3727 -107.2440 -106.9697 -104.8450
-103.3619 -105.4961 -105.7782 -103.9287 -101.2439 -98.3463 -96.8533 -98.5119 -102.0346 -105.3318 -107.2663 -106.6539 -104.0953 -99.7658 -98.5816 -99.3568 -102.6936 -106.4128 -108.2827 -108.1355 -106.1402 -103.6691 -102.8659 -103.8732 -106.3070 -109.7996 -111.9738 -111.0862 -108.3718 -105.2143 -103.0578 -103.4217 -105.5122 -107.9582 -110.0849 -110.1224 -107.5467 -104.6158 -102.9638 -102.5716 -105.1402 -108.4608 -110.7009 -112.0427 -110.5394 -107.3190 -105.1131 -105.1519 -106.8962 -109.7133 -111.7018 -111.3757 -109.3498 -106.0621 -102.5428 -101.2997 -102.6748 -104.9564 -107.0142 -107.4051 -105.4490 -102.6579 -100.1292 -98.7100 -100.0306 -103.3715 -106.2138 -107.5327 -106.8085 -104.2188 -101.7866 -100.6905 -101.1197 -103.7119 -107.0746 -108.5843 -107.9184 -105.6832 -102.6804 -100.9549 -101.3430 -103.2390 -106.4946 -109.5258 -110.0709 -108.6142 -106.5713 -104.8200 -104.9237 -107.1657 -110.2735 -113.6520 -115.9054 -115.3154 -112.9931 -110.7677 -109.2769 -109.5633 -111.6426 -114.0426 -116.1307 -116.9024 -115.0828 -112.0324 -109.6080 -108.0974 -108.2355 -110.1817 -112.6406 -115.0597 -116.6218 -116.0085 -114.1851 -112.5356 -110.8744 -109.8576 -110.2294 -111.3621 -113.1789 -115.3008 -116.4345 -117.0068 -117.6690 -117.4687 -116.6100 -115.9918 -115.3033 -114.8121 -114.7829 -114.4692 -114.4370 -115.2963 -115.8517 -115.9631 -116.3113 -116.2144 -115.5159 -114.5273 -112.8024 -111.1882 -110.7772 -110.8802 -111.6496 -113.8328 -116.2689 -117.9186 -118.4793 -117.1506 -114.5975 -112.2826 -110.2746 -109.4392 -111.0393 -113.8869 -116.4490 -118.0719 -117.7090 -115.7534 -113.7640 -112.1354 -111.8618 -114.1497 -117.4954 -119.9638 -120.9485 -119.7045 -116.8167 -114.1509 -112.3281 -112.0988 -114.2142 -116.7418 -117.5790 -116.5997 -113.7906 -110.1408 -107.7182 -107.0160 -108.0879 -110.9358 -113.2688 -113.1409 -111.2064 -108.2680 -105.5005 -104.7348 -105.8978 -108.1176 -110.7815 -111.7317 -109.7228 -106.4471 -103.4069 -101.5825 -102.1549 -104.3161 -106.4635 -107.8754 -107.1292 -103.9974 -101.0109 -99.7998 -100.5206 -103.3201 -106.7040 -108.7555 -109.1728 -107.6050 -104.7089 -103.2521 -104.3023 -106.8131 -110.0128 -112.2880 -112.1386 -110.2058 -107.2870 -104.5023 -104.1868 -106.4126 -109.0323 -110.9142 -111.0528 -108.8691 -105.9403 -103.6913 -102.9007 -104.7877 -106.0125 -107.1456 -107.4961 -107.5777 -107.4928 -105.4273 -105.1728 -106.5564 -109.5566 -112.4850 -112.7724 -110.6598 -107.5716 -104.4763 -103.1444 -104.1576 -108.2389 -110.3612 -110.9001 -108.3076 -104.1317 -100.7404 -98.9634 -99.6359 -102.3624 -105.0684 -106.7189 -106.6057 -104.2463
-102.7325 -105.2084 -105.6882 -104.0244 -102.0454 -99.2332 -97.0769 -98.6813 -102.4025 -105.6035 -107.7584 -107.2759 -104.5456 -100.4270 -99.0506 -98.8931 -102.0310 -106.1426 -108.0109 -108.0191 -106.2136 -103.5050 -102.7845 -103.7902 -105.5618 -109.1286 -112.1578 -111.5481 -108.9006 -105.9117 -103.4308 -103.6826 -105.8483 -107.7662 -109.9485 -110.8911 -108.3865 -104.2830 -102.2229 -101.8498 -104.1237 -107.7076 -109.7934 -110.8783 -110.6800 -108.1990 -105.3223 -105.2929 -106.9413 -109.7539 -112.3305 -112.1086 -110.1776 -107.7371 -104.0579 -101.6900 -102.8276 -105.1542 -107.1334 -107.9888 -106.0362 -102.9134 -100.7702 -98.9252 -98.8748 -102.1008 -105.4934 -106.9855 -106.8285 -104.4317 -101.6103 -100.8161 -101.0271 -102.4888 -106.1579 -108.8353 -108.5031 -106.6348 -103.6979 -101.2538 -101.5517 -103.1813 -105.3238 -108.7342 -110.6595 -109.3283 -107.1283 -105.1910 -104.3479 -106.2797 -109.3440 -111.9824 -114.9527 -116.1749 -114.0393 -111.3857 -109.7278 -109.1067 -110.7433 -113.2709 -114.8890 -116.4723 -116.6069 -113.6163 -110.3130 -108.4369 -107.4354 -108.3488 -110.5674 -112.3948 -114.6524 -116.2466 -114.9624 -112.9023 -111.6611 -110.1185 -109.2495 -109.5840 -110.0515 -111.7190 -114.1410 -114.8864 -115.2902 -116.6142 -116.9207 -116.5088 -116.4128 -115.7805 -115.6053 -116.1990 -115.5186 -114.7276 -115.3648 -115.2706 -114.1815 -113.4350 -112.1801 -110.9629 -110.6370 -109.7172 -109.3390 -111.4490 -113.8595 -115.5256 -117.5182 -118.4300 -117.7090 -116.2841 -113.3148 -110.2307 -109.9061 -110.9712 -112.2635 -114.9347 -117.3184 -117.7610 -116.9775 -114.5142 -111.6222 -111.4559 -113.0763 -114.9189 -118.0369 -120.8115 -120.9872 -119.4589 -116.5548 -113.3954 -113.0211 -114.6036 -115.9396 -117.8310 -119.0437 -117.2790 -113.9573 -110.4243 -107.5870 -107.8858 -110.2749 -111.8180 -113.0343 -113.3766 -110.8733 -107.4235 -105.1455 -104.3519 -106.3475 -109.7197 -111.0786 -110.9614 -109.9159 -106.6042 -103.1777 -102.1238 -102.8877 -105.4567 -108.3249 -108.3059 -106.3836 -104.3877 -101.5463 -99.6788 -101.0242 -103.9638 -107.2285 -109.6326 -108.7988 -106.2878 -104.9014 -103.9715 -104.3040 -107.4603 -111.0086 -112.9642 -113.0854 -110.3475 -106.7980 -105.6579 -105.9092 -107.0079 -109.8926 -112.0159 -111.4149 -109.1778 -105.6674 -102.8367 -103.4575 -105.7255 -105.4303 -106.5987 -107.7766 -107.1596 -106.8476 -104.8206 -104.3721 -107.1435 -110.6080 -112.0351 -112.4380 -111.2127 -107.6157 -104.5724 -103.5911 -104.3988 -109.3496 -111.6092 -110.4125 -107.7331 -104.5527 -100.5711 -98.5525 -99.6330 -102.0626 -105.1756 -106.8883 -105.2611 -103.0140
-102.0058 -104.7719 -105.4959 -104.0596 -102.7145 -100.0851 -97.3884 -98.8318 -102.7314 -105.9157 -108.2993 -108.0596 -105.1771 -101.1415 -99.7396 -98.7558 -101.3963 -105.8288 -107.8328 -107.9305 -106.3517 -103.3716 -102.4846 -103.6663 -104.9410 -108.1485 -111.9550 -111.9753 -109.3720 -106.5588 -103.8170 -103.7148 -106.1838 -107.9104 -109.6560 -111.3738 -108.7769 -104.5356 -101.9815 -101.0938 -102.7634 -106.7218 -109.0878 -109.8837 -110.5546 -108.6496 -105.7652 -105.1832 -106.8267 -109.4603 -112.6721 -113.1258 -110.7966 -108.7624 -105.9106 -102.6162 -102.7667 -105.2661 -107.2461 -108.5312 -107.2009 -103.3494 -100.9122 -99.6626 -98.5603 -100.5175 -104.4512 -106.4705 -106.7125 -105.0197 -101.5493 -100.1739 -101.1611 -102.0568 -104.6108 -108.3530 -109.2022 -107.5740 -105.0776 -101.9089 -101.1577 -103.4036 -105.2637 -107.4205 -110.3998 -110.5090 -108.0523 -105.9146 -104.2457 -104.8254 -108.3996 -111.2796 -113.1835 -115.5840 -115.4355 -112.4483 -110.1934 -108.9789 -109.3047 -112.1991 -114.4811 -115.1502 -116.3321 -115.7115 -112.0391 -108.9923 -107.3711 -106.7423 -108.5142 -110.6869 -111.7820 -114.0374 -115.6746 -114.0707 -112.1257 -111.0045 -109.4250 -108.9115 -109.0916 -108.6474 -110.0331 -112.5986 -113.0004 -113.1828 -114.6273 -115.0763 -115.1578 -115.3911 -114.3265 -114.0038 -114.9432 -113.8642 -112.1162 -112.0926 -111.4860 -110.1328 -109.4646 -108.2906 -107.9692 -109.9161 -111.1383 -111.9499 -114.9877 -117.6559 -118.1841 -118.0333 -116.2675 -113.5132 -112.2260 -110.8111 -109.4270 -111.4477 -114.8727 -116.5756 -117.5953 -117.1977 -114.8776 -113.2477 -111.8806 -110.5083 -112.6167 -116.9688 -119.4309 -120.5986 -120.5371 -118.1587 -115.9586 -114.6250 -113.3373 -114.9268 -118.7851 -120.1618 -119.2505 -117.4615 -113.8598 -110.6361 -109.4027 -108.7790 -110.3242 -113.8803 -114.5962 -112.3021 -109.8732 -106.9015 -104.7641 -105.3794 -106.7888 -108.9552 -112.1293 -112.1011 -108.5374 -105.6272 -103.6593 -102.7393 -104.4990 -106.7282 -108.0768 -109.4201 -107.9959 -103.4946 -100.8595 -100.8968 -102.0365 -105.0754 -108.0146 -108.7582 -108.8618 -107.3602 -103.8183 -102.9469 -105.6551 -108.6230 -111.6284 -113.5791 -112.4830 -110.5303 -108.5170 -105.6771 -105.5990 -109.1037 -111.6830 -112.4043 -111.7882 -108.6916 -105.5200 -104.2095 -103.3190 -104.5909 -106.3912 -107.3100 -106.9478 -106.4658 -105.8225 -104.0701 -105.2315 -107.0476 -109.2863 -112.7737 -113.4749 -110.2631 -107.0753 -104.8145 -103.9506 -105.9695 -110.1802 -110.7858 -111.1454 -109.0215 -103.6412 -99.7935 -98.9430 -99.7649 -102.6702 -105.2057 -105.1702 -104.7844 -103.6325
-101.2153 -104.1954 -105.2060 -104.0527 -103.2264 -100.8414 -97.7767 -98.9642 -102.9670 -106.2150 -108.8358 -108.9463 -106.0061 -101.9079 -100.5589 -98.9679 -100.9020 -105.4649 -107.7327 -107.9086 -106.5699 -103.3815 -102.0559 -103.3850 -104.4728 -107.0654 -111.3128 -112.2288 -109.8004 -107.1232 -104.2599 -103.5711 -106.2510 -108.3044 -109.4929 -111.4770 -109.6086 -105.0890 -101.8179 -100.4564 -101.3059 -105.3470 -108.5689 -109.1213 -109.8670 -109.2581 -106.6002 -105.0742 -106.5573 -108.9569 -112.4271 -114.1500 -111.7986 -109.2066 -107.3274 -104.1517 -102.9290 -105.1568 -107.3391 -108.7639 -108.5455 -104.6687 -100.8716 -99.9397 -99.1300 -99.4913 -102.9752 -105.8243 -106.3702 -105.5824 -102.3453 -99.3670 -100.3156 -102.2097 -103.6765 -106.9894 -109.3946 -108.4566 -106.4098 -103.4837 -100.9726 -102.5380 -105.7265 -107.2315 -109.3104 -111.0276 -109.4172 -106.8967 -105.0695 -103.8972 -106.2064 -110.6046 -112.6408 -113.9273 -115.4302 -113.9563 -111.0152 -109.3911 -108.4344 -109.7983 -113.5152 -115.1000 -115.0426 -115.7861 -114.3598 -110.6095 -108.0300 -106.3186 -106.0071 -108.5257 -110.4579 -111.0160 -113.3042 -114.8967 -113.4103 -111.8818 -110.6318 -108.9269 -108.8564 -108.8762 -107.5505 -108.4429 -110.8069 -110.9440 -110.9313 -111.9759 -112.0788 -112.4833 -112.9464 -111.2865 -110.4229 -111.4326 -110.3876 -108.3608 -108.0873 -107.6613 -107.3592 -108.3136 -108.3948 -109.1727 -112.8182 -115.3870 -115.8397 -117.2100 -117.8102 -116.3323 -114.7589 -112.2111 -109.5833 -110.4562 -112.4797 -113.1607 -115.3236 -117.9322 -117.8070 -116.4205 -114.0667 -110.7855 -110.4800 -112.7018 -114.0092 -116.4332 -120.1711 -121.0734 -119.6349 -117.5526 -114.4917 -113.6151 -115.9464 -117.4744 -118.7091 -121.1479 -120.9020 -117.4783 -114.0399 -110.7083 -109.2647 -111.4714 -113.2998 -113.4181 -114.3028 -113.4160 -109.3533 -106.0846 -104.5836 -104.7863 -108.1447 -111.1568 -110.9308 -110.4652 -109.3773 -105.6477 -103.0293 -103.4109 -105.0086 -108.2117 -110.7164 -109.0799 -106.4548 -104.9132 -102.2176 -100.7542 -102.9843 -106.0011 -108.7447 -110.4753 -108.3155 -105.0302 -104.5470 -104.6067 -105.2308 -108.8595 -112.4709 -113.7501 -113.5592 -110.5675 -106.7181 -106.6891 -108.4621 -109.4887 -111.8172 -113.6270 -112.1067 -109.3333 -105.9431 -102.7046 -103.6355 -107.1117 -106.1794 -105.7087 -107.2640 -106.2106 -105.1326 -103.9357 -103.6707 -106.4840 -111.3195 -112.7188 -111.4047 -110.2058 -107.5165 -104.7514 -104.7544 -105.9176 -110.1475 -113.1031 -111.9992 -107.1532 -103.5621 -100.9479 -98.9711 -100.1265 -102.5442 -104.2613 -106.0187 -105.0538 -101.0438
-100.4032 -103.5026 -104.8319 -104.0275 -103.5806 -101.4570 -98.2240 -99.0886 -103.0727 -106.4477 -109.3148 -109.8600 -107.0218 -102.7453 -101.4206 -99.4870 -100.6469 -105.0789 -107.6772 -107.9767 -106.8670 -103.6074 -101.6550 -102.8923 -104.0796 -106.0708 -110.3161 -112.1724 -110.1594 -107.5812 -104.7533 -103.3982 -105.9177 -108.6577 -109.6332 -110.5724 -110.1944 -105.9359 -101.9395 -100.1145 -100.1622 -103.7455 -108.0054 -108.9593 -109.1685 -109.3742 -106.9573 -105.2235 -106.2037 -108.4320 -111.6521 -114.5990 -113.2549 -109.7748 -107.9424 -105.7000 -103.6354 -104.9768 -107.4014 -108.7751 -109.3980 -106.7018 -101.6851 -99.6111 -99.6102 -99.4516 -101.6235 -104.9250 -105.9346 -105.6019 -103.5912 -99.6877 -98.7715 -101.5032 -103.5845 -105.7764 -108.7646 -109.0980 -107.3134 -105.2543 -102.2226 -101.3846 -104.8508 -107.8725 -109.0192 -110.6400 -110.5445 -108.0382 -106.1270 -104.5698 -104.2905 -108.0949 -112.3228 -113.4398 -114.2318 -114.5021 -112.1635 -109.9232 -108.7976 -108.0865 -110.4204 -114.3484 -115.1866 -114.7593 -114.9030 -112.7698 -109.4308 -107.2782 -105.2886 -105.2465 -108.2017 -109.8701 -110.2495 -112.4982 -113.9402 -112.9578 -112.0762 -110.6482 -108.8248 -109.1260 -109.0762 -107.1856 -107.4547 -109.2332 -109.1674 -109.1014 -109.5371 -108.9686 -109.4321 -110.1863 -108.3347 -107.0456 -108.0825 -107.7299 -106.5753 -106.9321 -107.2181 -108.2857 -111.0704 -112.2865 -112.8571 -115.7888 -117.6277 -116.5134 -115.4323 -113.9108 -111.6541 -111.1414 -110.8299 -110.1159 -112.6744 -116.5953 -117.6054 -117.5490 -117.1274 -114.6997 -112.6144 -111.5455 -110.1079 -111.5633 -116.2835 -118.9854 -119.5117 -119.9461 -118.4233 -116.0061 -115.0821 -114.2322 -114.9690 -119.2469 -122.1964 -121.4028 -120.0132 -117.5996 -113.8682 -111.9871 -111.4082 -111.4455 -114.3387 -116.8328 -114.8078 -111.5275 -108.9853 -105.9854 -104.9496 -106.3970 -107.7971 -110.3039 -112.8512 -110.8987 -106.7784 -104.8404 -103.8433 -104.1433 -106.9005 -108.9707 -109.8735 -110.7459 -108.3277 -103.4542 -101.7700 -102.8696 -104.5040 -107.5617 -109.7224 -109.2026 -108.5633 -106.9158 -103.4414 -103.1929 -106.9401 -110.2644 -112.8107 -114.1267 -112.2292 -109.9525 -108.8980 -107.0584 -107.2114 -111.2334 -114.0934 -113.8827 -112.3676 -108.7907 -105.2096 -104.7390 -104.9569 -105.4840 -106.3362 -107.3596 -106.8625 -106.5862 -104.1628 -102.4977 -104.4273 -107.8032 -109.4151 -111.4171 -112.7484 -109.9193 -106.1525 -104.6891 -104.6200 -106.9781 -112.4882 -112.5611 -110.5521 -108.7417 -104.5975 -99.9495 -99.1161 -100.5693 -102.8631 -105.6935 -105.3676 -102.3589 -101.1560
-99.6173 -102.7297 -104.3942 -104.0094 -103.7984 -101.9088 -98.7086 -99.2221 -103.0334 -106.5663 -109.6888 -110.7179 -108.1815 -103.6822 -102.2618 -100.2191 -100.6878 -104.7270 -107.6308 -108.1397 -107.2331 -104.0645 -101.4547 -102.2386 -103.6309 -105.2620 -109.1492 -111.7357 -110.3877 -107.9207 -105.2347 -103.3398 -105.2583 -108.6436 -109.9968 -110.3936 -110.5146 -106.9639 -102.5183 -100.2209 -99.6922 -102.3902 -107.2508 -109.3064 -109.0770 -109.2140 -107.7046 -105.6856 -105.8792 -107.9778 -110.7285 -114.1836 -114.5601 -110.9963 -108.2189 -106.6329 -104.6664 -104.9764 -107.3990 -108.8676 -109.6180 -108.4843 -103.7081 -99.7015 -99.3788 -99.7735 -100.9376 -103.9325 -105.5950 -105.2640 -104.2437 -101.1130 -98.1593 -99.6723 -103.0358 -105.2671 -107.8467 -109.3382 -108.0084 -106.2463 -104.1965 -101.8140 -103.0773 -107.3005 -109.6246 -110.5405 -111.1039 -109.3355 -106.8839 -105.6729 -104.4617 -105.3849 -109.9323 -113.3194 -113.8158 -114.0494 -113.0026 -110.4311 -109.0782 -108.2551 -107.9507 -110.9458 -114.5436 -114.9072 -114.3897 -113.7939 -111.1829 -108.4679 -106.5834 -104.3573 -104.4845 -107.4470 -108.9455 -109.5107 -111.6291 -112.8678 -112.6051 -112.4992 -111.0954 -109.2944 -109.7907 -109.7955 -107.8536 -107.6056 -108.5871 -108.3613 -108.4477 -108.4940 -107.3538 -107.6967 -108.8430 -107.5370 -106.4071 -107.5516 -108.1269 -108.3872 -109.7218 -110.4233 -111.6674 -114.6834 -115.7652 -114.7725 -115.1545 -115.1260 -113.0430 -111.4000 -110.0770 -109.0460 -110.9312 -113.7200 -114.6284 -116.3734 -118.7790 -118.1809 -115.8563 -113.5890 -110.8369 -110.2054 -112.4687 -114.0609 -115.7546 -119.2556 -120.6981 -118.9282 -116.8940 -114.6673 -113.3902 -115.4848 -118.1060 -119.3618 -121.6861 -123.0687 -120.4382 -116.7406 -113.9524 -111.8741 -112.7465 -115.3700 -115.8573 -115.6962 -115.7304 -112.6547 -108.0327 -105.6971 -105.1048 -106.5837 -110.2067 -111.6950 -110.4880 -109.7344 -107.8441 -104.2794 -103.2309 -104.9456 -107.3789 -110.7177 -112.1470 -109.5102 -106.8093 -105.4502 -103.3467 -103.0068 -105.9235 -108.7593 -110.6529 -111.1723 -108.0942 -104.5434 -104.4683 -105.4599 -106.7551 -110.3380 -113.4457 -113.8277 -112.9484 -110.1544 -106.7073 -107.2385 -110.3323 -112.0482 -113.6108 -114.6157 -112.4647 -109.1814 -106.4142 -103.7758 -104.3369 -108.2232 -107.5896 -106.0698 -106.4834 -106.2548 -103.3994 -102.9569 -103.7727 -105.8766 -110.3760 -112.8004 -110.6928 -108.1195 -106.3009 -104.6061 -105.4159 -107.8990 -111.4393 -112.9982 -112.9586 -108.2963 -102.9264 -100.7741 -100.2071 -101.2659 -103.9265 -104.7891 -104.1380 -103.6711 -101.1339
-98.9065 -101.9217 -103.9189 -104.0214 -103.9187 -102.1995 -99.2094 -99.3838 -102.8573 -106.5367 -109.9206 -111.4423 -109.4126 -104.7414 -103.0570 -101.0449 -101.0222 -104.4769 -107.5698 -108.3833 -107.6579 -104.7132 -101.5863 -101.5764 -103.0235 -104.6131 -108.0147 -110.9841 -110.4194 -108.1429 -105.6173 -103.4454 -104.5010 -108.0955 -110.2771 -110.5219 -110.7474 -108.0441 -103.5992 -100.8553 -100.0112 -101.7823 -106.4610 -109.7603 -109.7874 -109.3098 -108.2066 -106.3018 -105.6831 -107.5428 -110.0041 -113.2155 -115.0384 -112.6018 -108.9196 -106.9873 -105.4924 -105.1972 -107.2842 -109.1323 -109.7154 -109.3932 -106.0656 -101.0722 -99.0730 -99.6717 -100.7448 -103.1163 -105.3320 -105.2071 -104.1786 -102.3108 -99.0617 -98.2460 -101.3344 -104.6405 -107.1386 -109.1946 -108.8183 -106.8055 -105.3343 -103.4844 -102.5747 -105.4593 -109.3573 -111.0252 -111.5648 -110.6992 -107.9721 -106.0961 -105.3880 -104.8269 -106.8912 -111.2794 -113.6670 -113.8422 -113.3547 -111.2640 -108.9397 -108.2633 -107.6975 -107.9866 -111.1782 -114.1491 -114.4111 -113.9285 -112.6208 -109.8095 -107.6270 -105.8491 -103.6015 -103.7482 -106.2907 -107.7189 -108.7019 -110.6602 -111.7426 -112.1990 -112.8493 -111.8381 -110.3474 -110.8743 -111.0222 -109.5529 -109.1432 -109.4418 -109.1257 -109.4938 -109.5987 -108.3864 -108.5862 -110.0043 -109.6737 -109.1864 -110.3111 -111.2192 -112.1536 -113.7185 -113.9209 -113.7613 -115.0586 -114.9800 -112.6663 -111.1732 -110.2855 -109.0893 -109.3376 -110.3687 -111.2676 -114.1735 -117.7343 -118.3661 -117.5230 -116.7753 -114.5869 -112.1837 -111.2579 -110.7799 -112.0697 -116.1058 -118.9435 -119.0900 -118.9654 -117.9047 -115.4071 -114.0897 -114.0824 -114.9655 -118.4922 -122.3899 -122.7897 -121.3411 -119.6896 -116.6644 -114.0679 -113.6749 -114.0544 -115.6908 -118.4581 -118.2302 -114.6417 -111.3519 -108.5118 -106.1017 -106.3429 -108.1232 -109.7028 -111.8228 -112.2482 -108.8152 -105.2618 -104.1623 -104.1343 -105.8114 -109.0479 -110.8713 -111.3425 -111.0678 -107.9701 -104.0315 -103.5709 -105.4801 -107.7201 -110.4960 -111.6483 -110.1171 -108.4394 -106.5217 -103.9960 -104.5485 -108.4965 -111.8215 -113.6599 -113.9516 -111.5233 -108.9212 -108.3871 -108.1999 -109.1625 -112.8301 -115.5347 -114.8064 -112.4310 -108.8538 -105.3944 -105.1830 -106.7866 -107.6844 -106.7494 -107.7336 -106.8669 -105.1595 -102.8211 -101.7071 -103.4778 -107.6793 -110.0393 -110.2702 -110.2936 -108.4377 -105.2011 -104.1849 -105.3391 -107.6528 -113.1736 -114.3807 -111.2646 -107.5035 -104.5355 -101.3563 -100.2959 -102.0737 -103.9149 -105.3173 -105.5243 -102.4060 -98.8644
-98.3163 -101.1285 -103.4345 -104.0804 -103.9911 -102.3573 -99.7100 -99.5923 -102.5737 -106.3431 -109.9859 -111.9711 -110.6222 -105.9249 -103.8194 -101.8521 -101.5869 -104.3834 -107.4890 -108.6789 -108.1356 -105.4814 -102.0969 -101.1116 -102.2513 -104.0071 -107.0475 -110.0536 -110.2209 -108.2613 -105.8403 -103.6425 -103.8852 -107.1059 -110.1269 -110.8804 -111.1168 -109.1096 -105.0727 -101.9942 -100.9513 -102.1043 -106.0160 -109.9960 -110.9359 -110.0546 -108.6895 -106.8952 -105.6620 -107.0418 -109.4863 -112.2895 -114.6404 -113.8021 -110.2381 -107.3910 -105.8807 -105.4304 -107.0357 -109.2982 -110.1264 -109.8181 -107.7288 -103.2800 -99.7180 -99.3093 -100.4888 -102.5256 -104.9635 -105.5728 -104.3075 -102.6788 -100.2736 -98.2669 -99.5646 -103.1530 -106.3266 -108.7408 -109.4933 -107.8062 -105.8109 -104.5675 -103.4815 -104.3385 -107.8402 -110.9130 -112.0748 -111.8718 -109.7555 -106.8641 -105.5415 -105.2285 -105.6396 -108.3907 -111.9840 -113.5618 -113.4854 -112.2246 -109.6069 -107.6740 -107.3024 -107.1169 -108.0686 -111.0243 -113.3498 -113.7717 -113.3287 -111.5572 -108.7963 -106.8469 -105.0616 -103.0507 -103.0686 -104.8843 -106.2548 -107.6602 -109.4957 -110.5768 -111.5842 -112.7913 -112.5124 -111.6960 -112.2107 -112.5286 -111.8488 -111.6901 -111.7045 -111.4369 -112.0033 -112.4176 -111.6566 -111.7557 -112.9709 -113.2543 -113.2277 -113.8629 -114.0892 -114.2867 -114.8378 -113.9659 -112.1609 -111.4237 -110.5504 -108.7005 -107.7845 -108.0413 -108.9159 -111.3508 -114.2659 -115.8267 -117.2156 -118.5099 -117.4892 -114.9053 -112.8104 -111.1603 -110.8419 -112.7570 -114.9563 -116.7380 -119.0917 -120.1320 -118.3395 -115.8762 -114.0647 -113.0679 -114.3692 -117.3449 -119.6576 -121.6304 -123.1234 -121.7893 -118.3973 -115.7424 -114.2364 -114.3610 -116.6120 -118.5113 -118.5759 -117.9609 -115.8341 -111.5052 -107.8867 -106.7203 -107.2497 -109.4929 -111.9889 -111.9813 -110.2417 -108.4020 -105.7288 -103.4626 -104.1271 -106.7689 -109.7006 -112.2824 -112.3697 -109.5874 -107.0470 -105.7437 -104.9821 -106.2428 -109.4400 -111.8301 -112.5972 -111.6043 -108.2527 -105.1557 -105.1360 -106.8217 -109.0366 -112.1220 -114.0798 -113.4271 -111.5653 -109.0906 -106.9353 -107.8930 -111.3670 -113.9302 -115.0249 -114.7889 -112.1702 -108.6895 -106.5104 -105.4429 -106.2230 -109.2372 -108.4961 -107.4706 -107.5610 -104.7578 -102.1825 -102.0558 -104.0936 -106.4529 -109.2439 -111.1230 -109.5710 -106.3038 -104.3694 -103.9877 -105.5296 -108.8690 -113.1691 -113.1771 -111.9005 -108.5947 -103.7986 -101.1096 -101.4122 -102.9682 -105.1122 -106.1065 -104.2332 -101.5670 -99.9130
-97.8849 -100.3996 -102.9699 -104.1949 -104.0683 -102.4331 -100.2037 -99.8628 -102.2284 -105.9905 -109.8754 -112.2664 -111.7108 -107.2034 -104.5891 -102.5636 -102.2743 -104.4674 -107.3996 -108.9888 -108.6638 -106.2946 -102.9378 -101.0289 -101.4291 -103.3154 -106.2659 -109.1123 -109.8150 -108.2978 -105.9092 -103.7880 -103.5198 -105.9654 -109.3769 -111.1466 -111.6981 -110.1651 -106.7296 -103.5155 -102.2001 -103.0858 -106.2012 -110.0396 -111.9308 -111.3498 -110.0692 -107.4726 -105.8233 -106.5071 -108.9086 -111.6858 -113.9579 -114.1492 -111.6050 -108.3087 -106.1439 -105.4925 -106.6826 -109.0580 -110.6158 -110.4784 -108.7294 -105.2167 -101.3339 -99.5106 -100.0842 -101.9980 -104.4296 -105.8423 -105.0966 -103.1049 -100.8737 -98.9264 -98.8503 -101.4092 -104.9666 -107.9465 -109.5762 -108.9985 -106.8447 -105.0066 -104.1053 -104.3596 -106.5596 -109.8229 -112.0748 -112.6325 -111.4556 -108.7165 -106.1036 -105.0492 -105.2393 -106.6906 -109.5313 -112.1554 -113.1575 -112.6833 -110.8318 -108.2168 -106.5196 -106.1450 -106.4997 -108.0160 -110.5068 -112.3706 -113.0012 -112.5542 -110.7274 -108.2134 -106.1582 -104.2942 -102.6863 -102.4774 -103.4617 -104.6838 -106.2670 -108.0065 -109.2985 -110.6343 -112.0501 -112.6069 -112.7331 -113.3298 -113.8140 -113.9084 -114.1728 -114.3228 -114.2925 -114.7735 -115.2508 -115.0383 -115.0045 -115.4237 -115.4218 -115.1106 -114.7550 -113.8341 -112.6880 -111.7612 -110.2636 -108.3300 -107.2439 -106.9783 -107.1510 -108.3550 -110.4181 -112.6597 -115.1976 -117.3144 -117.6513 -116.6492 -115.2589 -113.3506 -111.5718 -111.1320 -111.9700 -113.9185 -116.8753 -119.2023 -119.5952 -118.7314 -117.0701 -114.7333 -113.1478 -113.3508 -115.0131 -117.9503 -121.2278 -122.7203 -121.9590 -120.1081 -117.6394 -115.3516 -114.7726 -115.9142 -117.8228 -119.8710 -120.5025 -118.3809 -114.7223 -111.2773 -108.6519 -107.7709 -109.0225 -110.9611 -112.3399 -112.5626 -110.6270 -107.0945 -104.4427 -103.8476 -105.0325 -107.7973 -110.8325 -112.2533 -111.8597 -110.0679 -107.2237 -105.2469 -105.9193 -108.4202 -111.2349 -113.3595 -113.4129 -111.2485 -108.5792 -106.5061 -105.6674 -107.2378 -110.6188 -113.3757 -114.2812 -113.2504 -110.5609 -108.0532 -107.5803 -108.8521 -111.2067 -114.1553 -115.7792 -114.6490 -111.7272 -108.4255 -106.0248 -106.0605 -108.1173 -109.9923 -107.9991 -108.0510 -107.6229 -104.1519 -101.9519 -101.8162 -103.7479 -107.1582 -109.7079 -109.6905 -107.9826 -105.7214 -103.7067 -103.5405 -105.6821 -108.6537 -113.2057 -114.0003 -111.6726 -107.3928 -103.8586 -102.1068 -102.1873 -103.9700 -105.7942 -105.9649 -104.5875 -102.0418 -99.0758
-97.6400 -99.7801 -102.5509 -104.3630 -104.1973 -102.4928 -100.6956 -100.2061 -101.8774 -105.5053 -109.5953 -112.3178 -112.5895 -108.5148 -105.4132 -103.1542 -102.9619 -104.7038 -107.3190 -109.2724 -109.2370 -107.1018 -103.9888 -101.4232 -100.7600 -102.4811 -105.5832 -108.2883 -109.2777 -108.2768 -105.9010 -103.7676 -103.3304 -104.9832 -108.1457 -111.4355 -112.3228 -111.2245 -108.3579 -105.2354 -103.5011 -104.1934 -106.9226 -110.1848 -112.4461 -112.6825 -111.2087 -108.2295 -106.1807 -106.1156 -108.0931 -111.1437 -113.5470 -113.9915 -112.3813 -109.5153 -106.7303 -105.4720 -106.2861 -108.4446 -110.6006 -111.3523 -109.8541 -106.5826 -103.0138 -100.5410 -100.0151 -101.4804 -103.8753 -105.6786 -105.8930 -104.2973 -101.5827 -99.2879 -98.7623 -100.3031 -103.3566 -106.7729 -109.1071 -109.5279 -108.2454 -106.1045 -104.3513 -104.2018 -105.9090 -108.6722 -111.3698 -112.9011 -112.5478 -110.5538 -107.8763 -105.5540 -104.5696 -105.4372 -107.6538 -110.1559 -112.0129 -112.5127 -111.4445 -109.3690 -107.1070 -105.3743 -104.8602 -105.7960 -107.6538 -109.7164 -111.3926 -112.1018 -111.6109 -110.1624 -108.0519 -105.6813 -103.7004 -102.4857 -102.0078 -102.2747 -103.2272 -104.5690 -106.1221 -107.7834 -109.2782 -110.5227 -111.6904 -112.7342 -113.5296 -114.1984 -114.7932 -115.2453 -115.6489 -116.0069 -116.1384 -116.1003 -116.0235 -115.7403 -115.1381 -114.3109 -113.2190 -111.8476 -110.3865 -108.8996 -107.4484 -106.4233 -106.1359 -106.5829 -107.8103 -109.7846 -112.1056 -114.3276 -116.0429 -116.7187 -116.1590 -114.7590 -113.0251 -111.5035 -110.9263 -111.7029 -113.6404 -116.2378 -118.6593 -119.8928 -119.5193 -117.8611 -115.5471 -113.5282 -112.8625 -113.9548 -116.4296 -119.4477 -121.7719 -122.3414 -121.0903 -118.7566 -116.3490 -115.0126 -115.4629 -117.3644 -119.6756 -121.1750 -120.7666 -118.2337 -114.5777 -111.2017 -109.2174 -109.2201 -110.8147 -112.6808 -113.5099 -112.5631 -109.8708 -106.5555 -104.2892 -104.0766 -105.8957 -108.9052 -111.5971 -112.5999 -111.6090 -109.2957 -106.9097 -105.9492 -107.1852 -109.9814 -112.9165 -114.5855 -114.0862 -111.6857 -108.7814 -106.8667 -106.8719 -108.9192 -111.9475 -114.2026 -114.5161 -112.8232 -110.0278 -107.7628 -107.4236 -109.1544 -112.0369 -114.6733 -115.5855 -114.1243 -111.0751 -107.9837 -106.2792 -106.7250 -108.7822 -109.1300 -108.5357 -108.3139 -107.0860 -103.7411 -101.7670 -102.0575 -104.2969 -107.2774 -109.2808 -109.1109 -107.0554 -104.4574 -102.8051 -103.2054 -105.6829 -108.9407 -113.3060 -113.4719 -111.0826 -107.2185 -103.8414 -102.3859 -103.0358 -104.9530 -106.5911 -106.5288 -104.5491 -101.5945 -99.0632
-97.5968 -99.3062 -102.1986 -104.5726 -104.4127 -102.6087 -101.2037 -100.6296 -101.5793 -104.9326 -109.1655 -112.1418 -113.1953 -109.7714 -106.3244 -103.6518 -103.5453 -105.0251 -107.2575 -109.4912 -109.8372 -107.8878 -105.1065 -102.2648 -100.4577 -101.5678 -104.8715 -107.6192 -108.7356 -108.2200 -105.9300 -103.5815 -103.1283 -104.3057 -106.7659 -110.4423 -113.1930 -112.2262 -109.8143 -106.9561 -104.7657 -104.9966 -107.7137 -110.6391 -112.6361 -114.0281 -112.5748 -109.3513 -106.7793 -106.0623 -107.2136 -110.2457 -113.3282 -114.0089 -112.6081 -110.4199 -107.6723 -105.6348 -105.9048 -107.7712 -109.9421 -111.6960 -111.3094 -108.0851 -104.2958 -101.7800 -100.5645 -101.1577 -103.4206 -105.4007 -106.0894 -105.5556 -103.2101 -99.9642 -98.5441 -99.6303 -102.0539 -105.3411 -108.3857 -109.4821 -108.9186 -107.6013 -105.4971 -103.9717 -104.9528 -107.6565 -110.3768 -112.6012 -113.3201 -111.8304 -109.4939 -107.2657 -105.0411 -104.1695 -105.7320 -108.2301 -110.2977 -111.7337 -111.6373 -109.8888 -107.9697 -106.1638 -104.2081 -103.5766 -104.9398 -106.8678 -108.7405 -110.5032 -111.1054 -110.5557 -109.7990 -108.2235 -105.5650 -103.4850 -102.4864 -101.7126 -101.5306 -102.1744 -102.8536 -103.9727 -105.9791 -107.5482 -108.3715 -109.7096 -111.2814 -112.2388 -113.1412 -113.9572 -114.1226 -114.4894 -115.2516 -115.0677 -114.1849 -113.7709 -113.2037 -111.9853 -110.8171 -109.4405 -107.6862 -106.7701 -106.6387 -106.2161 -106.3250 -107.8521 -109.7994 -111.7286 -113.8131 -115.0337 -115.1250 -115.0327 -114.2381 -112.1958 -110.5666 -110.4266 -111.2102 -113.0767 -115.8917 -118.1412 -119.4507 -120.1512 -119.1413 -116.3653 -113.9855 -113.0370 -113.3275 -115.3007 -118.2803 -120.4685 -121.6424 -121.8381 -120.0138 -116.9854 -115.1595 -115.0965 -116.3995 -118.9918 -121.3115 -121.6376 -120.4323 -118.1052 -114.4047 -111.0702 -110.1175 -111.0327 -112.7653 -114.5386 -114.5261 -112.1375 -109.1570 -106.5421 -104.4868 -104.5138 -107.0319 -110.0673 -112.2295 -112.8645 -111.1062 -108.1766 -106.6804 -106.9995 -108.4982 -111.3802 -114.4393 -115.5420 -114.5639 -112.2007 -109.0242 -107.1996 -108.3712 -111.0145 -113.3377 -114.9191 -114.7133 -112.3396 -109.6054 -107.8316 -107.3863 -109.2829 -112.8901 -115.2552 -115.1076 -113.2699 -110.2513 -107.3625 -106.5707 -107.6271 -109.2713 -109.4050 -109.5936 -110.1092 -106.4490 -103.3563 -101.7398 -102.3581 -105.1562 -107.7892 -108.6454 -108.1976 -106.3770 -103.4740 -101.8657 -102.9053 -105.6014 -108.9608 -113.5065 -113.0009 -109.8902 -106.6351 -104.1038 -102.7851 -103.7222 -105.8970 -107.1539 -106.9181 -104.9549 -101.3849 -98.6622
-97.7573 -99.0025 -101.9270 -104.8026 -104.7313 -102.8486 -101.7568 -101.1378 -101.3889 -104.3317 -108.6181 -111.7770 -113.5018 -110.8764 -107.3239 -104.1225 -103.9669 -105.3383 -107.2074 -109.6113 -110.4268 -108.6651 -106.1764 -103.4135 -100.6596 -100.7474 -104.0457 -107.0489 -108.2554 -108.1425 -106.0919 -103.3632 -102.7562 -103.8489 -105.5791 -108.9860 -112.7056 -113.4810 -111.0304 -108.5071 -106.0268 -105.4271 -108.0522 -111.8506 -113.3217 -114.1875 -113.7460 -110.8061 -107.6706 -106.4058 -106.6724 -108.9781 -112.7376 -114.3780 -112.9238 -110.8290 -108.5737 -106.1122 -105.5858 -107.2274 -109.1295 -111.1077 -112.2860 -110.1259 -105.7672 -102.7418 -101.3841 -101.1961 -103.0009 -105.3503 -106.1252 -106.0198 -105.0006 -101.8290 -98.7881 -98.8538 -101.0013 -103.8611 -107.3320 -109.4586 -109.1066 -108.1966 -107.0946 -104.9589 -104.0708 -106.1646 -109.1571 -111.6621 -113.5729 -113.2319 -110.6879 -108.5026 -106.7235 -104.4840 -103.9286 -105.9491 -108.2652 -110.0826 -111.3791 -110.5629 -108.2197 -106.6798 -105.2324 -103.0545 -102.4160 -103.8964 -105.6387 -107.6119 -109.6793 -110.0722 -109.4844 -109.5202 -108.5701 -105.8923 -103.8385 -102.8181 -101.6968 -101.3604 -101.8080 -101.6142 -101.9923 -104.0809 -105.6629 -106.0527 -107.1813 -108.6998 -109.5475 -110.6977 -111.6994 -111.3069 -111.2038 -112.2335 -112.1244 -110.7794 -110.0948 -109.4743 -108.3614 -107.9581 -107.5471 -106.2940 -106.3169 -108.0698 -109.2221 -109.9936 -111.7518 -113.2596 -113.9772 -114.7135 -114.1665 -111.8870 -110.4670 -110.3423 -109.8246 -110.0092 -112.1477 -114.7592 -117.3550 -120.0163 -120.5768 -118.6759 -116.9528 -115.6312 -113.6832 -112.9551 -114.5100 -116.7894 -119.4726 -122.0785 -122.0725 -119.6645 -117.7247 -116.3318 -114.8936 -115.2821 -117.6396 -119.9491 -121.9135 -122.7693 -120.3942 -116.2304 -113.5718 -112.2541 -111.6424 -112.8819 -114.8616 -115.4254 -114.9147 -113.0967 -108.9916 -105.2469 -104.8148 -106.3877 -108.5054 -111.2351 -112.7652 -111.8828 -110.3545 -108.7039 -106.6033 -106.5944 -109.9103 -113.5728 -115.6891 -116.3779 -114.7028 -111.4503 -109.6186 -109.3950 -109.6958 -111.7756 -115.0809 -116.2697 -114.8031 -112.2407 -108.9944 -106.9117 -108.2320 -111.0732 -112.9590 -114.4488 -114.9294 -112.6670 -109.3112 -107.1577 -106.2379 -107.3679 -110.6830 -110.7743 -109.4104 -109.0761 -106.3676 -103.2867 -102.0297 -103.3183 -105.2520 -107.4519 -109.3523 -108.2447 -104.5493 -102.0057 -101.6376 -102.7896 -105.8884 -109.2943 -112.3940 -111.7103 -110.0164 -106.4800 -103.0566 -102.8459 -104.8039 -106.7342 -108.1267 -107.4168 -104.0145 -100.9780 -99.9558
-98.1103 -98.8804 -101.7424 -105.0249 -105.1493 -103.2652 -102.3905 -101.7347 -101.3519 -103.7692 -107.9947 -111.2755 -113.5229 -111.7430 -108.3746 -104.6458 -104.2294 -105.5529 -107.1394 -109.6050 -110.9465 -109.4514 -107.1476 -104.6755 -101.3694 -100.2317 -103.1234 -106.4721 -107.8621 -108.0510 -106.4169 -103.3158 -102.2167 -103.3879 -104.7343 -107.4170 -111.6217 -113.5801 -112.3108 -110.1929 -107.7660 -106.2008 -108.1433 -111.8324 -113.6138 -114.2307 -114.4695 -112.3353 -108.8576 -107.0436 -106.7198 -107.8418 -111.4525 -114.5430 -113.7490 -111.2087 -109.1431 -106.7660 -105.3885 -106.6774 -108.6121 -110.1378 -112.0553 -111.9362 -108.0044 -103.8556 -102.0691 -101.5133 -102.5417 -105.2358 -106.6401 -106.2042 -105.8058 -104.1256 -100.4506 -98.5158 -99.9097 -102.4592 -105.7306 -109.1008 -109.7732 -108.3397 -107.6009 -106.5724 -104.5829 -104.7167 -107.4628 -110.2056 -112.6331 -114.2082 -112.6441 -109.4189 -107.6219 -106.0542 -103.9008 -103.8458 -105.9192 -107.7806 -109.6228 -110.9078 -109.3749 -106.6584 -105.4884 -104.1988 -101.9663 -101.4465 -102.6991 -104.0513 -106.3067 -108.8007 -109.0478 -108.4977 -109.2129 -108.8944 -106.5987 -104.8343 -103.6568 -102.1290 -101.8254 -102.3016 -101.3771 -100.8616 -102.6292 -104.0979 -104.2422 -105.0952 -106.1522 -106.5199 -107.8062 -109.2121 -108.5420 -107.8529 -108.9592 -109.3718 -108.4421 -108.1741 -107.9593 -107.3347 -108.1867 -109.5250 -109.2023 -109.3973 -111.6169 -113.1695 -113.3846 -113.7867 -113.3134 -111.7182 -111.1160 -110.5468 -108.3566 -107.3510 -109.2427 -111.5722 -113.8089 -116.8436 -118.7992 -119.1261 -119.5995 -118.8798 -115.5970 -113.1075 -113.4190 -114.5378 -116.3133 -119.2489 -120.9832 -121.0195 -121.1212 -119.8616 -116.2539 -113.9540 -114.7573 -116.5316 -118.9342 -121.7853 -122.3953 -120.8062 -119.3596 -117.0242 -113.2911 -111.7180 -113.2660 -115.1698 -116.7510 -117.5117 -115.2171 -111.2212 -108.8200 -107.2173 -105.7020 -106.8324 -110.1646 -112.3889 -113.1473 -112.5317 -109.4304 -106.4383 -106.9429 -109.1588 -111.1298 -114.0586 -116.7160 -116.5506 -114.7805 -112.6673 -109.8234 -108.8355 -111.7820 -115.1975 -116.2977 -116.2960 -114.9138 -111.5645 -109.0134 -108.4641 -108.4710 -110.1535 -113.9635 -115.8223 -113.9332 -111.0548 -108.2993 -106.0601 -106.6540 -109.3101 -110.7268 -109.2559 -110.1822 -109.8264 -105.5268 -102.7676 -102.2843 -103.3397 -106.4957 -109.3305 -108.5170 -105.9608 -104.2250 -102.2761 -100.9309 -102.6245 -105.8350 -108.3935 -112.4983 -112.2632 -108.2040 -104.2325 -103.4484 -104.0417 -105.2430 -107.4768 -108.2772 -106.5854 -104.6204 -102.3616 -99.4212
