ncols        257
nrows        37
xllcorner    -500
yllcorner    -406.25
cellsize     3.906250
NODATA_value -9999
-103.1726 -105.7034 -106.2824 -105.5935 -104.8183 -103.7973 -101.7162 -99.1492 -98.2987 -100.7154 -105.2933 -109.1640 -110.4984 -108.0304 -107.5257 -107.4489 -107.0317 -105.9937 -105.5002 -106.9246 -109.9891 -112.7326 -113.4523 -112.3343 -110.9558 -110.4545 -110.5794 -110.5040 -110.1004 -110.0525 -110.8351 -111.9698 -112.4727 -111.9115 -110.8630 -110.3620 -111.0003 -112.5087 -114.0433 -114.8213 -114.6341 -113.9162 -113.3165 -113.0948 -112.9316 -112.4379 -111.8531 -112.0136 -113.3873 -115.1809 -115.7183 -113.9641 -110.4571 -107.1439 -105.4526 -105.0662 -104.8439 -104.3614 -104.3720 -105.7109 -108.0277 -109.8629 -109.9374 -108.1805 -105.5189 -102.9553 -101.0519 -100.0874 -100.2332 -101.3370 -102.7611 -103.8087 -104.3873 -105.0145 -105.9979 -106.7573 -106.2291 -103.9995 -100.8638 -98.1569 -96.6536 -96.2671 -96.6666 -97.8366 -99.8410 -102.2829 -104.3890 -105.7385 -106.6680 -107.7502 -108.9477 -109.5467 -108.9693 -107.4324 -105.6420 -103.9807 -102.2771 -100.4055 -98.8140 -98.1829 -98.6251 -99.5063 -100.1632 -100.6063 -101.3145 -102.4389 -103.5074 -104.0213 -104.1138 -104.3577 -104.9661 -105.4678 -105.3066 -104.5718 -103.8863 -103.6089 -103.4218 -102.8437 -101.9519 -101.3185 -101.2391 -101.3015 -100.8964 -100.0012 -99.1997 -98.9208 -98.9248 -98.7140 -98.2886 -98.1993 -98.8076 -99.7519 -100.3511 -100.4254 -100.4504 -100.8611 -101.4573 -101.7132 -101.5545 -101.5295 -102.1199 -103.1087 -103.8591 -104.1378 -104.3879 -105.1004 -106.1449 -106.9633 -107.3501 -107.7447 -108.6208 -109.7914 -110.5778 -110.6388 -110.3730 -110.3823 -110.7376 -111.0305 -111.1045 -111.4214 -112.5126 -114.2223 -115.7707 -116.5951 -116.9072 -117.2844 -117.8904 -118.3640 -118.4569 -118.4661 -118.8047 -119.2908 -119.1956 -118.1160 -116.6039 -115.7218 -116.0253 -117.1592 -118.5126 -119.7050 -120.8528 -121.8998 -122.5373 -122.6945 -122.8412 -123.4691 -124.3008 -124.3494 -122.9821 -120.8037 -119.2263 -119.1017 -119.9151 -120.3945 -119.7791 -118.3666 -116.9546 -116.0281 -115.5694 -115.3650 -115.3869 -115.4689 -115.5275 -115.7012 -116.3322 -117.6143 -118.8740 -118.9280 -117.6427 -116.1970 -116.0683 -117.4576 -118.9814 -119.1450 -117.9739 -116.8717 -116.8483 -117.2734 -116.7254 -114.9352 -113.4000 -113.7938 -115.9872 -118.0410 -118.2247 -116.7381 -115.2159 -114.7572 -114.8844 -114.5545 -113.7780 -113.7163 -115.1037 -116.9807 -117.4026 -115.4087 -112.0182 -109.1619 -107.8472 -107.6101 -107.6223 -107.8354 -108.6840 -109.8692 -112.0297 -109.8507 -105.7723 -101.9278 -100.1974 -100.7144 -102.2391 -103.6953 -104.8993 -105.8049 -105.6828 -103.7237 -100.4596
-101.2044 -104.1661 -106.0918 -106.2648 -105.5418 -104.5981 -103.1072 -100.8789 -99.1059 -99.6463 -102.9563 -107.2466 -110.0421 -108.5290 -107.8383 -107.2391 -106.9045 -106.3151 -105.6180 -105.9185 -107.9998 -111.0954 -113.3513 -113.5605 -112.2324 -110.8762 -110.4326 -110.6090 -110.6504 -110.4196 -110.4892 -111.2655 -112.2993 -112.6408 -111.8542 -110.5757 -110.0057 -110.8295 -112.6049 -114.1697 -114.6529 -114.1408 -113.4160 -113.0862 -113.0082 -112.6048 -111.7259 -111.0643 -111.5464 -113.2340 -114.9294 -115.0533 -113.0310 -109.6336 -106.5918 -104.8779 -104.1553 -103.6508 -103.2027 -103.4111 -104.8028 -107.0125 -108.8757 -109.2903 -107.9620 -105.4410 -102.6485 -100.4262 -99.3209 -99.4679 -100.5236 -101.8365 -102.9022 -103.7276 -104.6664 -105.8225 -106.6773 -106.4219 -104.6990 -101.9873 -99.2420 -97.2336 -96.2489 -96.2907 -97.3224 -99.1958 -101.4672 -103.5272 -105.0343 -106.1530 -107.2588 -108.4301 -109.3070 -109.4778 -108.8931 -107.8208 -106.4642 -104.7899 -102.7888 -100.7820 -99.3017 -98.6385 -98.6101 -98.8408 -99.1968 -99.8331 -100.8308 -101.9400 -102.7893 -103.2934 -103.7127 -104.2752 -104.8496 -105.0951 -104.8898 -104.4757 -104.1360 -103.8383 -103.3171 -102.4818 -101.6009 -101.0067 -100.7008 -100.3776 -99.8345 -99.2338 -98.8786 -98.8106 -98.7677 -98.5592 -98.3550 -98.4961 -99.0662 -99.7807 -100.3388 -100.7752 -101.3566 -102.1735 -102.9806 -103.5039 -103.8106 -104.2437 -104.9959 -105.8726 -106.5455 -106.9552 -107.3345 -107.8316 -108.2506 -108.2716 -107.8759 -107.4212 -107.2671 -107.4317 -107.7115 -108.0764 -108.7864 -110.0540 -111.6897 -113.2119 -114.3059 -115.0719 -115.7810 -116.4961 -117.0624 -117.4440 -117.8943 -118.6603 -119.5642 -120.0276 -119.5840 -118.3267 -116.8157 -115.6146 -115.0054 -115.0931 -115.9611 -117.5342 -119.3371 -120.7606 -121.1970 -120.9973 -120.9147 -121.4283 -122.2785 -122.7649 -122.4604 -121.5901 -120.7636 -120.4398 -120.6496 -121.0738 -121.2336 -120.6615 -119.1485 -117.0293 -115.1598 -114.3545 -114.6112 -115.3005 -115.4442 -115.0197 -114.8486 -115.6124 -117.0525 -118.0576 -117.5667 -116.1312 -115.2361 -115.8944 -117.7058 -119.3173 -119.7404 -119.1413 -118.3879 -117.9825 -117.5842 -116.5856 -115.0362 -113.8563 -114.0492 -115.6817 -117.6633 -118.5937 -117.9053 -116.2355 -114.7175 -113.9527 -113.7168 -113.6178 -113.8256 -114.8906 -116.7745 -118.3046 -117.9522 -115.3147 -111.6883 -108.9792 -108.0576 -108.3187 -108.7869 -109.2600 -110.0493 -110.8020 -112.2273 -109.2699 -104.7689 -101.1372 -100.1271 -101.3642 -103.1299 -104.2819 -104.9365 -105.3438 -104.8681 -102.7591 -99.7479
-99.6316 -102.2084 -105.1724 -106.5068 -106.1569 -105.2287 -104.2109 -102.6916 -100.7394 -99.7451 -101.2415 -104.9989 -108.8332 -108.6805 -108.3921 -107.3154 -106.6633 -106.3952 -105.9532 -105.6009 -106.4377 -108.9826 -112.1430 -113.9937 -113.6074 -111.8969 -110.5663 -110.4108 -110.8282 -110.8969 -110.5890 -110.6899 -111.6319 -112.7377 -112.8392 -111.5998 -110.0338 -109.5995 -110.8018 -112.7462 -114.0483 -114.1067 -113.4603 -112.9950 -112.9531 -112.8015 -112.0205 -110.8876 -110.3645 -111.1609 -112.9124 -114.3119 -114.1089 -112.0732 -108.9309 -106.0676 -104.2118 -103.2153 -102.6118 -102.2617 -102.5078 -103.7293 -105.7655 -107.7721 -108.6676 -107.8214 -105.4615 -102.5299 -100.1252 -98.9296 -98.9664 -99.7781 -100.8365 -101.8789 -102.9539 -104.1907 -105.5068 -106.5039 -106.6505 -105.6055 -103.4652 -100.7607 -98.2357 -96.5533 -96.0806 -96.8163 -98.4508 -100.5161 -102.5703 -104.3434 -105.7771 -106.9472 -107.9331 -108.7329 -109.2630 -109.4157 -109.1096 -108.3095 -107.0380 -105.3961 -103.5717 -101.8030 -100.3049 -99.2101 -98.5638 -98.3594 -98.5640 -99.1111 -99.8908 -100.7705 -101.6415 -102.4448 -103.1528 -103.7335 -104.1430 -104.3538 -104.3779 -104.2518 -104.0008 -103.6262 -103.1312 -102.5505 -101.9439 -101.3599 -100.8150 -100.3125 -99.8755 -99.5487 -99.3667 -99.3289 -99.4136 -99.6127 -99.9431 -100.4189 -101.0209 -101.7026 -102.4253 -103.1765 -103.9497 -104.7129 -105.4077 -105.9837 -106.4249 -106.7370 -106.9149 -106.9354 -106.7880 -106.5082 -106.1716 -105.8593 -105.6362 -105.5646 -105.7239 -106.1951 -107.0126 -108.1292 -109.4325 -110.7936 -112.1035 -113.2797 -114.2695 -115.0729 -115.7656 -116.4742 -117.2926 -118.1944 -119.0112 -119.4994 -119.4522 -118.7982 -117.6558 -116.3347 -115.2688 -114.8652 -115.3118 -116.4490 -117.8182 -118.8946 -119.3714 -119.4215 -119.2739 -119.3779 -119.8909 -120.6264 -121.1803 -121.2192 -120.7507 -120.1728 -120.0197 -120.5391 -121.4122 -121.8852 -121.2873 -119.5659 -117.3920 -115.7016 -115.0131 -115.0852 -115.1636 -114.8851 -114.3282 -114.1288 -114.6983 -115.8118 -116.7698 -116.6368 -115.6599 -114.8849 -115.2904 -116.9124 -118.7833 -119.7763 -119.5691 -118.7984 -118.2744 -118.0962 -117.6342 -116.4228 -114.9636 -114.4484 -115.5535 -117.5605 -118.8384 -118.3130 -116.4324 -114.6193 -113.8282 -113.7999 -113.7767 -113.7107 -114.3996 -116.2922 -118.4216 -118.9459 -116.9267 -113.4032 -110.4787 -109.3780 -109.6093 -110.0251 -110.2989 -110.9321 -111.8979 -111.9118 -111.6020 -107.1815 -102.8360 -100.8410 -101.4275 -103.0022 -104.1291 -104.7491 -105.3101 -105.3423 -103.7436 -100.5882 -97.9272
-98.8577 -100.2521 -103.5676 -106.0656 -106.4997 -105.7570 -105.0446 -104.2792 -102.7518 -100.9109 -100.5697 -102.9615 -107.0000 -108.1607 -108.8797 -107.7587 -106.5979 -106.2755 -106.2037 -105.7572 -105.5847 -106.9882 -110.1118 -113.2766 -114.4517 -113.2669 -111.2934 -110.3226 -110.6360 -111.1324 -110.9418 -110.4971 -110.8433 -112.1337 -113.2064 -112.8021 -111.0320 -109.4066 -109.3686 -110.9162 -112.7321 -113.5585 -113.2976 -112.7807 -112.6618 -112.7327 -112.3276 -111.2401 -110.1004 -109.8340 -110.7865 -112.3557 -113.4059 -113.0455 -111.1571 -108.2529 -105.4327 -103.4190 -102.3199 -101.8029 -101.5584 -101.6848 -102.5909 -104.4356 -106.6358 -108.0201 -107.6243 -105.4587 -102.5360 -100.1253 -98.9149 -98.7860 -99.2460 -99.9656 -100.9171 -102.1442 -103.5485 -104.9177 -106.0295 -106.6397 -106.4158 -105.0617 -102.6464 -99.8004 -97.4700 -96.3621 -96.5741 -97.7239 -99.3747 -101.2881 -103.3184 -105.2179 -106.6867 -107.6247 -108.2375 -108.8007 -109.3332 -109.5640 -109.2360 -108.3857 -107.2722 -106.0699 -104.7217 -103.1336 -101.4456 -100.0144 -99.1069 -98.6764 -98.4928 -98.4590 -98.7135 -99.3946 -100.3756 -101.3169 -101.9829 -102.4354 -102.8694 -103.3088 -103.5485 -103.4174 -103.0210 -102.6485 -102.4520 -102.2954 -101.9597 -101.4432 -100.9794 -100.7551 -100.6906 -100.5649 -100.3266 -100.1947 -100.4134 -100.9652 -101.5970 -102.1227 -102.6184 -103.2680 -104.0627 -104.7453 -105.0800 -105.1133 -105.0999 -105.1873 -105.2554 -105.1090 -104.7749 -104.5213 -104.5730 -104.8792 -105.2256 -105.5434 -106.0193 -106.8603 -108.0079 -109.1653 -110.1098 -110.9108 -111.7937 -112.8363 -113.8875 -114.7979 -115.6455 -116.6349 -117.7713 -118.7164 -119.0398 -118.6064 -117.6845 -116.6923 -115.9086 -115.4521 -115.4424 -116.0140 -117.0923 -118.2330 -118.8425 -118.6603 -118.0169 -117.6415 -117.8465 -118.5348 -119.2232 -119.5323 -119.4409 -119.1994 -119.1147 -119.4150 -120.1662 -121.1473 -121.7976 -121.4727 -119.9687 -117.8525 -116.1479 -115.5246 -115.7276 -115.8571 -115.2406 -114.2393 -113.6567 -114.0336 -115.0329 -115.8539 -115.5593 -114.5378 -113.8975 -114.4970 -116.2238 -118.1370 -119.2778 -119.3909 -118.9545 -118.5802 -118.3971 -118.0148 -117.0912 -115.9204 -115.3712 -116.1079 -117.8020 -119.1888 -119.0707 -117.3714 -115.1829 -113.7297 -113.3239 -113.4071 -113.5427 -114.0886 -115.6392 -117.8587 -119.2321 -118.3192 -115.2781 -111.9135 -110.0654 -110.0519 -110.8200 -111.4360 -111.9902 -112.8420 -113.3637 -112.0963 -110.4381 -105.6813 -102.2640 -101.5980 -102.8626 -104.2572 -104.9198 -105.2046 -105.3105 -104.4542 -101.9564 -98.8214 -97.4269
-99.0905 -98.7932 -101.5683 -104.8218 -106.3193 -106.1399 -105.7048 -105.5208 -104.7055 -102.7731 -101.0715 -101.6855 -104.9631 -106.8695 -108.8950 -108.3820 -106.9164 -106.1984 -106.2599 -106.0579 -105.4045 -105.5941 -107.8420 -111.4770 -114.2198 -114.3848 -112.5348 -110.7467 -110.4001 -111.0037 -111.2198 -110.6690 -110.3301 -111.1621 -112.7134 -113.4365 -112.3739 -110.2821 -108.9292 -109.3607 -110.9996 -112.4159 -112.7792 -112.4348 -112.1863 -112.2836 -112.2460 -111.5667 -110.3946 -109.4623 -109.4283 -110.3341 -111.5961 -112.3819 -112.0226 -110.3012 -107.5052 -104.6132 -102.5060 -101.4925 -101.1921 -101.0354 -100.9599 -101.5226 -103.2016 -105.5805 -107.3591 -107.3237 -105.3741 -102.5926 -100.3151 -99.1536 -98.8644 -98.9811 -99.3814 -100.2151 -101.4791 -102.8730 -104.1054 -105.1606 -106.1040 -106.6715 -106.2600 -104.4895 -101.7557 -99.0997 -97.4555 -97.0379 -97.4692 -98.3929 -99.8132 -101.8103 -104.0904 -106.0236 -107.1943 -107.7884 -108.3291 -109.0439 -109.6123 -109.5824 -108.9368 -108.1117 -107.4597 -106.8311 -105.7980 -104.2442 -102.5854 -101.3415 -100.5840 -99.9352 -99.1153 -98.3511 -98.1343 -98.6215 -99.4151 -99.9968 -100.2820 -100.6210 -101.2594 -101.9426 -102.1680 -101.7811 -101.1790 -100.8632 -100.8827 -100.8429 -100.4532 -99.9259 -99.7283 -99.9971 -100.3493 -100.3344 -99.9791 -99.7557 -100.0154 -100.5821 -100.9999 -101.1171 -101.2736 -101.8558 -102.7720 -103.5078 -103.7059 -103.5677 -103.5917 -103.9780 -104.4339 -104.6097 -104.6081 -104.9168 -105.8313 -107.0735 -108.0803 -108.6184 -108.9869 -109.5825 -110.3901 -111.0386 -111.3495 -111.6716 -112.5496 -114.0922 -115.7898 -117.0002 -117.5290 -117.6464 -117.5974 -117.2780 -116.5066 -115.5219 -115.0036 -115.4753 -116.7315 -117.9689 -118.5118 -118.3560 -117.9899 -117.7889 -117.7115 -117.5623 -117.4695 -117.4882 -117.6667 -117.6917 -117.3690 -117.0760 -117.5644 -119.1546 -121.1659 -122.3077 -121.7588 -119.8806 -117.8556 -116.6394 -116.2701 -116.1193 -115.6690 -114.9200 -114.4236 -114.3742 -114.6845 -115.0673 -115.3701 -115.0538 -114.1766 -113.2439 -113.0598 -114.1684 -116.2701 -118.2842 -119.2022 -118.9776 -118.4793 -118.4734 -118.7348 -118.3606 -117.0151 -115.6525 -115.7081 -117.4917 -119.5827 -120.0673 -118.4068 -115.9235 -114.3619 -114.1401 -114.2475 -113.8149 -113.3868 -114.2666 -116.6489 -118.8454 -118.7532 -116.0637 -112.7015 -110.9223 -111.1826 -112.1302 -112.5278 -112.6427 -113.4038 -114.5180 -114.1669 -110.9788 -108.0026 -103.9755 -102.8453 -104.0499 -105.4373 -105.7687 -105.5958 -105.6710 -105.2994 -103.0885 -99.2617 -96.3653 -97.0102
-100.2604 -98.2351 -99.6573 -102.8986 -105.3966 -106.1957 -106.2452 -106.4607 -106.3191 -104.8428 -102.5416 -101.5219 -103.3034 -105.0358 -108.1448 -108.7846 -107.5782 -106.4374 -106.2559 -106.2669 -105.6226 -104.9796 -105.9607 -109.0886 -112.7516 -114.5829 -113.7765 -111.7592 -110.5460 -110.7123 -111.2019 -110.9500 -110.2593 -110.3315 -111.6314 -113.1089 -113.2289 -111.6359 -109.5832 -108.6924 -109.4307 -110.8753 -111.8232 -111.9179 -111.6743 -111.6271 -111.6997 -111.4263 -110.6052 -109.5846 -108.9449 -109.0258 -109.7527 -110.7424 -111.4248 -111.1565 -109.5125 -106.6634 -103.6333 -101.5148 -100.7061 -100.6639 -100.5759 -100.3160 -100.6190 -102.1975 -104.7121 -106.7583 -106.9880 -105.2628 -102.6927 -100.5926 -99.4786 -99.0425 -98.8929 -99.0752 -99.8386 -101.0872 -102.3339 -103.2273 -103.9488 -104.8997 -106.0116 -106.5511 -105.7603 -103.6772 -101.2102 -99.3621 -98.4496 -98.1417 -98.1583 -98.7199 -100.2003 -102.4528 -104.7025 -106.2155 -106.9791 -107.5914 -108.4825 -109.3867 -109.6830 -109.1755 -108.3621 -107.8649 -107.7123 -107.3412 -106.3152 -104.8867 -103.7224 -103.1235 -102.6895 -101.8344 -100.5361 -99.4106 -99.0183 -99.2328 -99.4261 -99.2351 -98.9769 -99.2092 -99.9744 -100.6567 -100.6399 -99.9883 -99.3387 -99.1400 -99.1582 -98.8341 -98.0454 -97.3328 -97.3008 -97.9096 -98.5134 -98.6054 -98.3815 -98.4553 -99.0839 -99.8493 -100.1829 -100.0928 -100.2006 -101.0305 -102.3957 -103.6171 -104.3072 -104.7756 -105.5779 -106.7665 -107.7667 -108.0369 -107.7222 -107.5095 -107.8550 -108.5102 -108.9082 -108.9306 -109.1144 -110.0349 -111.6015 -113.1104 -113.9930 -114.3670 -114.7506 -115.3237 -115.6684 -115.3321 -114.5301 -114.1038 -114.7170 -116.1820 -117.6678 -118.5249 -118.7795 -118.8052 -118.6901 -118.1457 -117.0652 -115.9613 -115.6121 -116.2228 -117.1579 -117.3770 -116.7127 -115.9617 -116.1265 -117.4138 -119.0614 -120.0914 -120.1258 -119.4712 -118.5942 -117.7228 -116.9571 -116.5132 -116.5899 -116.9758 -116.9663 -116.2515 -115.0278 -114.1734 -114.2369 -114.8728 -114.6953 -113.3318 -111.8219 -111.7715 -113.7513 -116.6146 -118.5227 -118.6574 -117.8444 -117.4738 -117.9430 -118.3333 -117.6412 -116.1461 -115.3371 -116.4093 -118.9228 -121.0720 -121.3056 -119.6345 -117.3597 -115.6596 -114.6154 -113.6393 -112.6366 -112.4284 -113.8546 -116.5487 -118.8479 -119.1100 -117.1515 -114.3353 -112.2555 -111.4417 -111.3798 -111.5888 -112.2932 -113.8184 -115.5213 -115.8031 -113.5308 -109.3919 -107.5438 -105.5960 -105.4365 -105.8428 -105.9611 -105.9932 -106.2233 -105.9141 -103.8616 -100.1839 -97.0091 -96.7850 -99.8681
-102.0392 -98.7386 -98.3600 -100.6848 -103.6915 -105.6742 -106.5835 -107.1975 -107.5240 -106.7012 -104.5315 -102.4824 -102.5381 -103.1723 -106.6379 -108.5459 -108.2580 -107.0864 -106.4601 -106.3788 -105.9288 -104.9972 -104.8651 -106.8140 -110.3929 -113.4946 -114.3000 -112.9706 -111.2702 -110.6463 -110.9452 -111.0504 -110.4783 -109.9853 -110.5480 -112.0195 -113.0885 -112.6095 -110.8084 -109.0673 -108.5872 -109.3749 -110.4968 -111.1212 -111.1703 -111.0494 -110.9934 -110.8362 -110.3407 -109.5633 -108.8248 -108.4263 -108.4969 -109.0393 -109.9127 -110.6595 -110.5029 -108.8175 -105.7988 -102.6148 -100.5279 -99.9250 -100.0858 -100.0459 -99.6887 -99.8799 -101.4453 -104.0644 -106.2926 -106.7499 -105.2795 -102.9443 -100.9727 -99.8138 -99.1837 -98.8106 -98.8656 -99.6124 -100.8319 -101.8614 -102.2875 -102.4592 -103.1243 -104.5170 -105.9264 -106.2940 -105.2328 -103.3709 -101.6758 -100.5599 -99.7552 -98.9978 -98.6045 -99.2003 -100.9170 -103.0680 -104.7335 -105.6359 -106.2951 -107.2976 -108.5365 -109.3105 -109.1526 -108.4003 -107.8301 -107.7845 -107.8221 -107.2966 -106.1745 -105.1157 -104.7168 -104.8096 -104.6488 -103.7743 -102.5395 -101.6903 -101.4979 -101.4705 -100.9784 -100.0436 -99.3476 -99.4380 -100.0656 -100.4366 -100.0885 -99.3690 -98.9658 -99.0589 -99.1074 -98.5247 -97.4398 -96.6322 -96.6995 -97.4263 -98.0843 -98.3021 -98.4768 -99.2478 -100.6691 -102.0742 -102.8069 -102.9636 -103.2714 -104.2410 -105.5845 -106.5732 -106.9014 -107.0275 -107.5915 -108.6066 -109.3950 -109.3621 -108.7077 -108.2403 -108.5079 -109.2576 -109.8342 -110.0204 -110.3009 -111.2306 -112.6655 -113.7956 -113.9857 -113.4708 -113.1118 -113.4940 -114.3983 -115.2087 -115.7108 -116.2984 -117.3503 -118.5674 -119.1378 -118.6121 -117.4841 -116.7595 -116.9352 -117.5044 -117.5260 -116.6209 -115.3192 -114.5332 -114.5234 -115.0857 -115.9049 -116.9876 -118.3876 -119.6873 -120.0658 -119.0856 -117.3453 -116.1173 -116.1772 -117.0253 -117.3945 -116.5802 -115.1552 -114.4889 -115.0707 -116.1518 -116.5164 -115.3223 -113.3527 -112.0433 -112.2059 -113.4781 -114.8861 -115.7886 -116.2538 -116.6754 -117.2117 -117.6485 -117.7052 -117.3668 -116.9342 -116.8339 -117.3758 -118.5494 -119.9113 -120.7015 -120.2752 -118.6192 -116.4649 -114.7794 -114.0503 -114.0739 -114.4397 -115.0938 -116.2425 -117.6823 -118.4640 -117.5422 -114.8878 -111.8216 -110.0451 -110.2747 -111.8651 -113.6981 -115.1996 -116.3306 -116.7922 -115.7388 -112.6303 -108.2711 -106.6186 -105.1342 -105.7384 -107.1669 -108.1557 -108.2689 -107.5215 -105.7246 -102.7257 -99.2624 -97.0378 -97.4802 -100.4244
-103.9585 -100.1536 -98.0554 -98.7408 -101.4409 -104.4029 -106.5004 -107.7487 -108.4024 -108.1353 -106.5408 -104.2431 -102.9054 -101.8827 -104.7423 -107.4660 -108.4821 -107.9350 -107.0597 -106.5941 -106.1774 -105.3264 -104.5837 -105.2421 -107.8527 -111.2888 -113.5762 -113.6768 -112.3229 -111.0783 -110.7511 -110.8770 -110.6559 -110.0859 -109.9582 -110.8015 -112.0838 -112.6266 -111.7773 -110.0639 -108.6789 -108.4047 -109.0737 -109.9565 -110.4962 -110.6201 -110.4982 -110.2162 -109.7512 -109.1419 -108.5345 -108.0581 -107.7662 -107.7550 -108.2145 -109.1687 -110.1076 -110.0534 -108.2613 -105.0506 -101.7418 -99.6703 -99.1616 -99.3899 -99.3596 -98.9990 -99.2163 -100.8389 -103.5494 -105.9468 -106.6907 -105.5769 -103.5222 -101.6108 -100.2651 -99.3174 -98.6512 -98.5229 -99.1641 -100.2458 -101.0014 -101.0083 -100.7524 -101.2274 -102.8867 -105.0539 -106.4671 -106.4079 -105.2427 -103.8767 -102.8092 -101.8432 -100.6752 -99.5669 -99.2471 -100.1332 -101.7937 -103.3097 -104.1700 -104.7013 -105.5601 -106.8813 -108.0624 -108.4249 -107.9836 -107.4319 -107.3596 -107.6072 -107.5003 -106.6894 -105.6179 -105.0667 -105.2927 -105.7476 -105.6999 -105.0462 -104.3841 -104.2739 -104.5546 -104.5117 -103.7093 -102.5222 -101.7491 -101.7402 -102.0364 -101.9245 -101.2640 -100.6295 -100.6116 -101.0934 -101.3504 -100.8704 -99.9536 -99.4026 -99.6548 -100.3470 -100.8023 -100.8594 -101.0776 -102.0721 -103.7482 -105.3260 -106.1400 -106.3088 -106.5166 -107.1746 -107.9364 -108.1287 -107.5929 -106.9541 -106.9905 -107.8136 -108.7905 -109.2873 -109.3696 -109.3443 -110.1971 -111.5191 -111.8743 -111.2797 -110.3072 -109.8378 -110.2056 -111.0031 -111.7243 -112.4467 -113.7212 -115.7809 -118.0091 -119.3466 -119.2589 -118.2291 -117.2473 -116.8658 -116.8271 -116.5887 -116.0516 -115.6324 -115.6540 -115.8625 -115.7219 -115.1636 -114.8512 -115.6199 -117.2045 -118.5735 -118.5879 -117.1688 -115.4302 -114.6784 -115.2791 -116.4849 -117.2878 -117.3428 -117.0037 -116.9306 -117.0507 -116.9564 -116.3868 -115.5167 -114.3881 -113.1798 -112.1002 -111.5947 -112.2042 -114.0024 -116.2163 -117.6484 -117.6722 -116.8038 -116.1523 -116.2538 -116.5613 -116.2253 -115.3312 -115.1172 -116.7340 -119.7888 -122.3417 -122.5659 -120.4430 -117.7116 -116.1005 -115.7412 -115.4520 -114.4808 -113.6200 -114.3041 -116.6690 -118.8803 -118.7280 -115.8946 -112.4055 -110.6872 -111.3055 -112.8008 -113.6405 -113.9004 -114.7029 -116.2097 -116.7957 -114.6669 -110.1626 -105.9482 -106.6264 -108.1447 -110.2063 -110.8152 -109.9305 -108.6873 -107.3722 -104.9575 -100.8744 -96.6750 -95.1685 -97.7120 -102.7283
-105.5817 -102.0720 -98.8259 -97.6107 -99.1447 -102.4403 -105.7482 -107.9755 -109.0449 -109.1514 -108.2126 -106.2962 -104.2682 -101.6044 -103.0622 -105.7232 -107.8834 -108.5247 -107.9688 -107.1385 -106.4569 -105.7051 -104.8471 -104.5997 -105.8671 -108.6232 -111.5946 -113.2427 -113.0689 -111.8979 -110.9247 -110.6109 -110.5533 -110.2793 -109.9310 -110.0613 -110.8588 -111.7561 -111.8936 -110.9409 -109.4190 -108.2412 -107.9800 -108.5391 -109.3956 -110.0418 -110.2259 -109.9375 -109.3197 -108.6018 -107.9976 -107.5697 -107.2168 -106.8822 -106.7819 -107.2975 -108.4882 -109.6859 -109.7366 -107.8735 -104.5570 -101.1962 -99.0889 -98.5037 -98.6262 -98.5419 -98.2244 -98.5290 -100.2096 -102.9786 -105.5702 -106.7329 -106.1620 -104.5217 -102.6840 -101.0659 -99.6587 -98.5143 -97.9450 -98.1600 -98.8411 -99.3127 -99.2525 -99.1575 -99.9436 -101.9979 -104.6597 -106.6982 -107.3247 -106.7403 -105.7343 -104.8350 -103.9279 -102.6833 -101.2234 -100.2164 -100.2601 -101.2406 -102.4092 -103.1207 -103.4339 -103.9270 -104.9511 -106.1683 -106.8910 -106.8331 -106.4207 -106.3084 -106.6471 -106.9305 -106.5952 -105.6986 -104.9069 -104.8000 -105.2678 -105.6684 -105.5636 -105.1994 -105.1921 -105.7801 -106.4944 -106.6316 -106.0052 -105.1386 -104.6833 -104.7165 -104.7034 -104.1553 -103.2324 -102.6027 -102.7086 -103.2680 -103.5737 -103.2611 -102.6889 -102.5116 -102.9331 -103.4852 -103.5788 -103.2015 -102.9665 -103.4489 -104.5494 -105.5970 -106.0769 -106.1660 -106.4827 -107.3419 -108.3646 -108.8868 -108.7095 -108.3394 -108.0741 -108.6792 -109.2937 -109.3277 -108.8245 -108.4046 -108.5722 -109.1758 -109.6371 -109.9361 -109.9207 -110.6163 -112.2134 -114.1101 -115.4571 -115.9472 -116.0101 -116.2425 -116.7457 -117.1085 -117.0065 -116.6744 -116.6584 -117.1148 -117.4870 -117.0144 -115.5896 -114.0357 -113.4459 -114.2097 -115.6873 -116.8239 -117.1182 -116.6822 -116.1346 -115.7829 -115.5631 -115.4026 -115.4694 -115.9433 -116.5550 -116.9097 -116.5841 -115.9156 -115.6403 -116.1350 -116.8478 -116.5727 -114.9447 -112.9094 -112.0208 -113.0171 -115.0694 -116.5104 -116.3733 -115.2259 -114.4787 -114.8962 -115.8605 -116.1413 -115.3520 -114.5282 -115.1633 -117.6426 -120.6772 -122.3514 -121.7760 -119.7373 -117.7746 -116.7070 -116.1315 -115.3116 -114.3641 -114.3321 -115.9778 -118.6021 -120.2893 -119.5089 -116.5180 -113.1255 -111.0556 -110.6034 -110.9091 -111.3535 -112.3304 -114.4329 -117.0614 -118.3151 -116.6425 -112.5841 -108.5768 -106.8237 -109.4257 -110.5722 -110.7951 -110.3316 -110.0497 -109.6874 -107.7524 -103.4967 -98.5914 -96.1506 -97.8248 -102.1503 -106.0602
-106.6546 -103.9843 -100.4197 -97.6144 -97.4211 -100.1485 -104.2248 -107.6247 -109.4147 -109.8633 -109.4332 -108.1733 -106.1891 -102.4172 -102.1795 -103.8464 -106.4395 -108.3784 -108.7936 -108.0336 -106.9751 -106.0871 -105.3148 -104.7170 -104.8579 -106.3278 -108.9204 -111.4977 -112.8274 -112.5802 -111.4860 -110.5552 -110.2153 -110.1932 -110.0981 -109.9490 -110.0803 -110.6160 -111.1679 -111.1175 -110.1930 -108.7642 -107.5910 -107.2739 -107.8672 -108.9017 -109.7218 -109.8731 -109.3206 -108.4036 -107.5666 -107.0367 -106.6948 -106.2838 -105.7944 -105.6342 -106.3049 -107.7905 -109.2479 -109.4332 -107.6296 -104.3784 -101.0796 -98.8969 -98.0817 -97.9490 -97.7433 -97.4578 -97.8137 -99.4546 -102.1768 -104.9438 -106.6400 -106.8209 -105.8098 -104.1975 -102.3582 -100.4316 -98.6154 -97.2787 -96.7051 -96.7981 -97.1738 -97.6000 -98.2965 -99.7219 -102.0216 -104.6970 -106.8644 -107.8983 -107.8585 -107.2969 -106.6602 -105.9164 -104.7793 -103.2461 -101.8212 -101.1348 -101.3561 -102.0338 -102.5521 -102.7235 -102.8930 -103.4639 -104.3792 -105.1361 -105.3134 -105.0272 -104.8044 -105.0092 -105.4491 -105.5952 -105.1754 -104.4925 -104.1169 -104.2918 -104.7009 -104.8481 -104.6263 -104.4436 -104.7649 -105.5731 -106.3443 -106.5712 -106.2668 -105.9044 -105.8659 -106.0120 -105.8475 -105.0987 -104.0617 -103.3321 -103.2037 -103.3897 -103.3666 -102.9612 -102.5347 -102.5674 -103.1053 -103.6858 -103.8301 -103.5653 -103.4042 -103.8022 -104.6837 -105.5505 -106.0451 -106.3414 -106.9288 -108.0244 -108.9100 -109.5641 -109.4535 -108.8977 -108.4362 -108.2604 -108.0784 -107.5573 -106.8399 -106.5432 -107.2062 -108.7635 -110.8933 -112.3238 -113.3474 -114.2522 -115.2040 -115.9406 -116.0421 -115.4810 -114.8109 -114.7202 -115.3784 -116.2522 -116.6047 -116.1843 -115.4228 -114.9837 -115.1592 -115.7153 -116.2528 -116.6055 -116.8249 -116.8535 -116.3877 -115.2068 -113.6384 -112.5548 -112.7338 -114.1318 -115.8230 -116.7596 -116.6744 -116.2509 -116.3744 -117.1835 -117.9414 -117.6546 -115.9817 -113.7561 -112.2706 -112.2736 -113.4856 -114.9733 -115.9420 -116.2275 -116.1614 -116.0805 -115.9931 -115.6617 -114.9516 -114.0974 -113.6582 -114.1866 -115.8274 -118.1173 -120.1583 -121.1126 -120.7101 -119.3843 -117.9083 -116.8348 -116.2399 -115.9710 -116.0538 -116.7217 -117.9621 -119.1136 -119.1217 -117.3935 -114.4525 -111.6684 -110.2447 -110.4291 -111.6573 -113.3070 -115.1097 -116.8003 -117.6389 -116.6870 -113.7696 -110.0418 -107.3217 -106.7110 -109.8881 -111.5599 -112.7789 -113.3248 -112.9225 -110.8778 -106.8375 -101.8569 -98.1995 -97.6321 -99.9098 -103.1560 -105.7037
-107.1636 -105.4739 -102.3508 -98.7157 -96.7792 -98.1233 -102.1188 -106.4840 -109.3104 -110.3251 -110.2829 -109.6232 -108.1429 -104.0199 -102.3892 -102.4956 -104.5499 -107.2893 -109.0067 -108.9790 -107.8291 -106.6152 -105.8033 -105.2170 -104.7855 -104.9964 -106.4240 -108.8895 -111.2990 -112.4548 -112.0499 -110.8494 -109.9233 -109.7390 -109.9725 -110.0828 -109.9438 -109.8787 -110.1525 -110.5383 -110.4475 -109.5015 -107.9754 -106.6791 -106.3645 -107.1565 -108.4629 -109.4090 -109.4412 -108.6468 -107.5799 -106.7694 -106.3196 -105.9318 -105.3181 -104.6247 -104.4356 -105.2752 -107.0009 -108.6566 -109.0161 -107.4456 -104.4602 -101.3608 -99.1071 -97.9843 -97.5257 -97.1709 -96.8912 -97.2098 -98.6450 -101.1303 -103.9432 -106.1632 -107.2127 -107.0326 -105.8686 -103.9907 -101.6364 -99.1369 -96.9731 -95.6183 -95.2905 -95.8582 -96.9978 -98.4642 -100.2168 -102.2778 -104.4851 -106.4408 -107.7554 -108.3407 -108.4239 -108.2559 -107.8386 -106.9782 -105.6172 -104.0612 -102.8306 -102.2563 -102.2274 -102.3508 -102.3562 -102.3274 -102.5330 -103.0572 -103.6421 -103.9186 -103.7792 -103.4900 -103.4150 -103.6418 -103.9044 -103.8828 -103.5565 -103.2347 -103.2307 -103.5334 -103.8269 -103.8387 -103.6400 -103.5754 -103.8929 -104.4705 -104.9305 -105.0199 -104.8512 -104.7492 -104.8729 -105.0227 -104.8442 -104.2123 -103.3861 -102.7645 -102.5043 -102.4024 -102.1643 -101.7646 -101.5076 -101.7205 -102.4058 -103.2274 -103.8464 -104.2505 -104.7279 -105.5160 -106.5064 -107.3229 -107.6921 -107.3265 -107.1982 -107.2651 -107.4048 -107.3168 -106.9027 -106.4468 -106.3919 -106.9381 -107.8774 -108.8270 -109.6028 -110.3333 -111.2077 -112.4622 -113.0339 -113.0726 -112.6968 -112.3992 -112.6465 -113.4864 -114.5378 -115.3483 -115.7468 -115.8640 -115.8695 -115.7687 -115.4966 -115.1674 -115.1243 -115.6423 -116.5503 -117.2052 -116.9483 -115.6818 -114.0331 -112.9185 -112.8652 -113.6671 -114.6411 -115.2110 -115.3012 -115.2543 -115.4362 -115.9129 -116.4300 -116.7023 -116.4919 -115.7349 -114.6661 -113.7544 -113.5310 -114.2648 -115.6753 -116.9860 -117.4120 -116.7503 -115.5413 -114.5884 -114.2424 -114.1538 -113.7833 -113.1791 -113.1667 -114.6222 -117.4578 -120.3684 -121.7369 -120.9490 -118.8778 -117.0509 -116.3103 -116.2892 -116.1765 -115.8669 -116.1644 -117.7429 -119.9979 -121.1781 -119.8738 -116.4245 -112.7591 -110.7569 -110.7664 -111.7311 -112.6182 -113.4512 -114.7973 -116.4434 -117.0224 -115.2718 -111.6142 -108.1820 -107.0549 -108.4866 -112.9455 -114.5996 -114.8747 -114.2143 -112.6945 -109.7189 -105.1673 -100.4628 -97.9176 -98.7805 -102.1044 -105.6947 -108.0034
-107.2754 -106.3582 -104.0979 -100.5353 -97.4100 -96.9907 -99.9320 -104.5737 -108.4696 -110.4185 -110.8727 -110.6456 -109.7502 -105.8928 -103.5695 -102.1540 -102.8868 -105.4981 -108.2519 -109.4495 -108.8205 -107.4234 -106.3566 -105.7904 -105.2736 -104.7301 -104.8341 -106.2797 -108.8030 -111.1299 -112.0031 -111.2677 -109.9294 -109.1733 -109.3510 -109.8855 -110.0529 -109.7488 -109.4743 -109.6482 -110.0348 -109.9074 -108.7865 -107.0141 -105.5882 -105.3856 -106.4572 -107.9937 -108.9614 -108.8509 -107.9381 -106.9089 -106.2320 -105.8301 -105.2979 -104.4285 -103.5509 -103.3502 -104.2906 -106.1159 -107.8613 -108.4151 -107.2258 -104.6680 -101.8894 -99.6059 -98.1816 -97.4184 -96.9547 -96.6975 -96.9238 -98.0086 -100.0452 -102.6782 -105.2466 -107.0974 -107.8114 -107.2659 -105.5782 -103.0579 -100.1975 -97.6309 -95.9718 -95.5595 -96.2868 -97.6889 -99.2616 -100.7541 -102.1952 -103.6864 -105.2068 -106.6088 -107.7509 -108.5853 -109.1098 -109.2677 -108.9469 -108.0969 -106.8525 -105.5131 -104.3744 -103.5576 -102.9921 -102.5552 -102.2203 -102.0665 -102.1502 -102.3889 -102.5911 -102.6105 -102.4689 -102.3204 -102.2911 -102.3598 -102.3971 -102.3192 -102.1910 -102.1693 -102.3675 -102.6663 -102.9233 -103.0278 -103.0860 -103.2183 -103.4848 -103.7890 -103.9683 -103.9534 -103.8329 -103.7528 -103.7596 -103.7503 -103.5827 -103.2328 -102.8334 -102.5553 -102.4531 -102.4357 -102.3897 -102.3240 -102.3803 -102.6966 -103.2633 -103.9210 -104.5031 -104.9759 -105.4334 -105.9580 -106.1241 -106.3628 -106.3260 -106.0940 -105.8878 -105.9032 -106.1810 -106.6337 -107.1836 -107.8533 -108.7060 -109.7007 -110.6285 -111.2218 -111.3514 -111.1321 -111.1306 -110.9044 -110.9690 -111.2804 -111.7808 -112.4494 -113.2387 -113.9948 -114.5000 -114.6449 -114.5770 -114.6536 -115.1877 -116.1768 -117.2419 -117.8420 -117.6070 -116.5520 -115.0466 -113.6056 -112.6584 -112.4109 -112.8117 -113.5928 -114.3814 -114.8811 -115.0487 -115.1235 -115.4233 -116.0140 -116.5961 -116.5989 -115.6890 -114.1980 -113.0220 -113.0179 -114.3306 -116.2191 -117.5753 -117.7406 -116.9418 -115.9801 -115.4600 -115.2710 -114.8128 -113.7559 -112.5921 -112.3792 -113.8244 -116.5233 -119.1010 -120.2163 -119.5737 -118.0456 -116.8182 -116.3887 -116.3686 -116.2187 -116.0717 -116.6866 -118.5016 -120.7840 -121.9042 -120.6528 -117.3788 -113.7901 -111.5544 -111.0629 -111.5329 -112.1884 -113.1007 -114.7201 -116.7127 -117.6445 -116.1621 -112.5365 -108.8054 -107.1494 -108.0814 -110.2900 -114.1742 -115.0933 -115.3589 -115.0017 -113.1119 -109.0169 -103.7779 -99.9624 -99.5619 -102.2023 -105.6178 -107.8187 -108.5101
-107.1923 -106.7076 -105.3092 -102.5129 -99.0991 -97.1509 -98.3346 -102.2569 -106.7700 -109.8822 -111.1748 -111.3664 -110.9000 -107.5566 -105.2649 -102.8998 -102.0808 -103.6349 -106.6042 -108.9833 -109.4677 -108.4104 -107.1093 -106.3643 -105.9082 -105.1825 -104.3861 -104.4872 -106.1494 -108.7931 -110.8937 -111.2872 -110.1778 -108.8602 -108.4792 -109.0732 -109.7726 -109.8217 -109.3230 -108.9899 -109.2530 -109.6996 -109.4356 -108.0059 -105.9568 -104.4821 -104.4648 -105.7734 -107.4041 -108.2952 -108.0860 -107.2140 -106.3721 -105.8742 -105.4829 -104.7837 -103.7103 -102.7302 -102.5303 -103.4671 -105.2249 -106.9374 -107.6729 -106.9417 -104.9081 -102.4914 -100.2154 -98.5322 -97.5312 -97.0416 -96.8822 -97.0555 -97.7611 -99.2238 -101.4516 -104.0976 -106.5174 -108.0165 -108.1403 -106.8545 -104.5441 -101.8623 -99.5100 -98.0126 -97.5643 -98.0095 -98.9759 -100.0806 -101.0853 -101.9425 -102.7500 -103.6599 -104.7777 -106.0867 -107.4385 -108.6164 -109.4363 -109.8114 -109.7497 -109.3051 -108.5379 -107.5178 -106.3504 -105.1793 -104.1435 -103.3191 -102.6975 -102.2204 -101.8419 -101.5581 -101.3853 -101.3137 -101.2906 -101.2537 -101.2036 -101.1443 -101.1458 -101.2318 -101.3749 -101.5295 -101.6824 -101.8672 -102.1278 -102.4670 -102.8180 -103.1495 -103.4052 -103.6033 -103.7761 -103.9223 -103.9973 -103.9540 -103.7917 -103.5642 -103.3386 -103.1446 -102.9658 -102.7786 -102.5978 -102.4804 -102.4818 -102.6081 -102.8134 -103.0446 -103.2899 -103.5843 -103.9673 -104.1095 -104.4670 -104.7973 -105.1210 -105.5077 -106.0231 -106.6758 -107.4098 -108.1446 -108.8178 -109.3900 -109.8169 -110.0324 -109.9796 -109.6736 -109.2391 -108.8785 -108.7805 -109.2830 -109.7502 -110.4344 -111.1778 -111.8512 -112.3775 -112.7491 -113.0467 -113.4338 -114.0899 -115.0867 -116.2800 -117.3097 -117.7501 -117.3407 -116.1602 -114.6246 -113.2968 -112.6142 -112.6878 -113.2822 -113.9780 -114.4201 -114.5113 -114.4392 -114.5155 -114.9164 -115.4930 -115.8370 -115.5604 -114.5804 -113.3449 -112.6323 -113.0540 -114.5937 -116.5475 -117.9597 -118.2582 -117.6007 -116.6491 -115.9622 -115.5380 -114.9293 -113.8404 -112.6410 -112.2462 -113.3737 -115.7998 -118.3311 -119.6157 -119.1484 -117.5952 -116.1521 -115.5389 -115.5725 -115.6800 -115.7537 -116.3791 -118.1158 -120.5606 -122.2709 -121.8231 -119.0846 -115.4434 -112.7078 -111.7153 -111.9786 -112.5962 -113.3131 -114.5146 -116.2201 -117.3913 -116.5992 -113.5241 -109.6496 -107.2230 -107.4071 -109.4804 -111.8203 -115.4643 -116.3418 -116.5051 -115.3559 -112.0826 -107.1159 -102.5644 -100.7435 -102.1800 -105.2473 -107.8065 -108.9767 -109.1579
-107.0054 -106.7358 -105.9119 -104.1435 -101.3151 -98.5954 -97.9026 -100.1820 -104.4130 -108.4880 -110.9690 -111.8389 -111.6914 -108.7756 -106.9341 -104.3889 -102.4107 -102.4301 -104.6104 -107.4998 -109.2492 -109.1675 -108.0442 -107.0446 -106.4946 -105.8594 -104.7822 -103.8629 -104.2002 -106.1661 -108.7767 -110.4186 -110.2536 -108.9155 -107.8351 -107.9035 -108.7826 -109.4485 -109.3095 -108.7390 -108.5461 -109.0027 -109.4605 -108.9542 -107.1898 -104.9516 -103.5296 -103.6895 -105.0986 -106.6650 -107.4264 -107.1977 -106.4905 -105.8977 -105.5582 -105.1503 -104.3342 -103.1844 -102.2219 -102.0471 -102.8962 -104.4608 -106.0509 -106.9423 -106.6798 -105.2180 -103.0980 -100.8291 -98.9033 -97.6959 -97.2274 -97.2411 -97.4699 -97.9028 -98.8197 -100.5338 -103.0175 -105.7333 -107.8350 -108.6219 -107.9252 -106.1615 -104.0449 -102.1908 -100.8873 -100.1429 -99.8775 -100.0387 -100.5530 -101.2385 -101.8492 -102.2550 -102.5783 -103.1198 -104.1041 -105.4803 -106.9426 -108.1678 -109.0358 -109.6385 -110.0897 -110.3414 -110.1999 -109.5247 -108.4093 -107.1513 -106.0326 -105.1146 -104.2454 -103.2662 -102.2109 -101.3005 -100.7401 -100.5529 -100.4848 -100.3381 -100.0978 -99.9482 -100.0725 -100.4533 -100.8734 -101.1179 -101.1769 -101.2479 -101.5343 -102.0183 -102.5418 -102.8521 -102.9284 -102.9571 -103.1368 -103.4698 -103.7500 -103.7581 -103.4741 -103.0956 -102.8461 -102.7646 -102.6838 -102.4201 -101.9847 -101.6043 -101.5302 -101.8215 -102.3151 -102.8109 -103.2843 -103.4954 -104.2645 -105.3186 -106.4228 -107.3041 -107.8721 -108.2594 -108.6438 -109.0349 -109.2411 -109.0559 -108.4843 -107.7870 -107.2957 -107.1741 -107.3453 -107.6364 -107.9801 -108.4606 -109.3573 -110.1153 -110.7806 -111.1277 -111.2084 -111.3667 -111.9900 -113.1912 -114.6881 -115.9764 -116.6445 -116.5810 -115.9509 -115.0318 -114.0861 -113.3456 -113.0255 -113.2539 -113.9347 -114.7049 -115.1158 -114.9571 -114.4530 -114.1103 -114.2844 -114.7917 -115.0433 -114.5241 -113.2366 -111.9018 -111.5058 -112.5757 -114.7512 -117.0056 -118.3520 -118.4824 -117.8469 -117.1480 -116.7069 -116.2527 -115.3088 -113.8194 -112.4271 -112.0966 -113.3454 -115.7234 -118.0201 -119.0837 -118.6058 -117.2328 -115.9400 -115.2493 -114.9978 -114.8223 -114.8047 -115.5400 -117.4639 -120.0930 -122.0404 -121.9765 -119.7372 -116.5249 -113.9583 -112.8468 -112.8425 -113.2078 -113.7599 -114.8871 -116.6260 -117.9590 -117.3765 -114.3494 -110.1823 -107.1784 -106.7887 -108.5614 -110.9014 -112.7090 -116.0570 -117.1134 -117.1933 -115.1100 -110.6251 -105.4857 -102.4050 -102.7834 -105.5378 -108.2899 -109.5612 -109.5886 -109.1436
-106.6384 -106.6265 -106.0714 -105.1722 -103.4396 -100.8972 -98.8576 -99.0499 -101.9625 -106.2693 -109.9636 -111.9124 -112.2376 -109.5844 -108.2166 -106.0599 -103.6778 -102.3486 -103.0544 -105.4368 -107.9502 -109.1561 -108.8449 -107.8836 -107.0919 -106.4522 -105.4743 -104.1680 -103.3962 -104.1088 -106.2538 -108.5804 -109.6390 -109.0319 -107.6953 -106.9665 -107.3763 -108.3190 -108.8221 -108.5626 -108.1037 -108.1799 -108.8153 -109.1932 -108.4159 -106.4154 -104.1401 -102.8401 -103.0984 -104.4468 -105.8347 -106.4699 -106.2987 -105.8036 -105.4226 -105.1641 -104.7163 -103.8636 -102.7813 -101.9552 -101.8416 -102.5715 -103.8991 -105.3487 -106.3957 -106.5930 -105.6781 -103.8060 -101.5227 -99.3273 -97.8601 -97.3469 -97.5120 -97.8709 -98.1859 -98.7011 -99.9240 -102.1174 -104.9299 -107.4997 -108.9720 -109.0238 -107.9852 -106.4982 -105.0413 -103.7267 -102.4853 -101.3749 -100.6600 -100.5793 -101.0603 -101.7032 -102.0892 -102.1376 -102.1722 -102.6294 -103.6654 -105.0274 -106.2948 -107.2497 -108.0237 -108.8894 -109.9115 -110.8089 -111.1705 -110.8208 -109.9836 -109.0815 -108.3609 -107.6981 -106.7698 -105.4188 -103.8937 -102.5812 -101.7755 -101.3710 -101.0115 -100.4527 -99.8054 -99.4264 -99.5639 -100.1023 -100.6545 -100.9133 -100.9231 -101.0098 -101.4386 -102.1215 -102.7152 -102.8820 -102.6535 -102.3788 -102.3934 -102.7057 -103.0008 -102.9592 -102.5781 -102.1877 -102.1440 -102.4968 -102.9538 -103.1755 -103.1173 -103.0870 -103.4608 -104.3314 -105.1051 -105.8511 -106.2341 -106.4645 -106.8626 -107.5062 -108.1174 -108.3046 -107.9315 -107.2604 -106.7309 -106.5854 -106.6946 -106.7432 -106.5840 -106.4074 -106.5561 -107.1637 -107.9738 -108.5332 -108.8259 -108.4869 -108.3852 -108.9156 -110.0813 -111.5423 -112.9237 -114.0678 -114.9997 -115.6909 -115.9206 -115.4353 -114.2811 -112.9638 -112.2057 -112.4416 -113.4687 -114.5759 -115.0806 -114.8397 -114.3157 -114.1491 -114.6030 -115.3359 -115.5964 -115.0010 -113.6789 -112.2103 -111.2964 -111.3620 -112.3850 -113.9875 -115.6541 -116.9373 -117.5901 -117.6156 -117.2183 -116.6553 -116.0634 -115.4079 -114.6333 -113.9033 -113.6644 -114.3703 -116.0237 -117.9502 -119.1076 -118.7834 -117.1305 -115.0616 -113.5684 -113.0595 -113.2965 -113.9188 -114.9511 -116.7066 -119.1591 -121.4930 -122.4458 -121.2705 -118.4391 -115.3701 -113.3872 -112.8694 -113.3307 -114.1853 -115.2687 -116.5601 -117.5666 -117.3053 -115.1442 -111.6711 -108.5387 -107.2608 -108.0995 -110.1322 -112.3020 -114.1968 -117.7330 -118.1968 -116.5010 -112.4219 -107.4019 -103.9062 -103.5092 -105.6132 -108.1927 -109.7536 -110.3392 -110.6087 -110.3813
-105.9230 -106.4017 -106.0281 -105.6453 -105.0249 -103.3936 -100.9485 -99.3089 -100.1786 -103.6551 -108.0381 -111.2783 -112.4732 -110.1261 -109.0512 -107.4383 -105.3412 -103.3569 -102.5608 -103.5880 -105.8859 -108.0550 -108.9921 -108.6681 -107.8090 -106.9661 -106.0577 -104.8274 -103.5634 -103.1262 -104.1445 -106.2287 -108.1082 -108.6572 -107.8413 -106.6729 -106.2420 -106.7767 -107.6006 -107.9380 -107.7017 -107.4874 -107.8355 -108.5516 -108.7859 -107.8100 -105.7507 -103.5891 -102.4284 -102.6809 -103.8519 -105.0307 -105.5960 -105.5395 -105.2314 -104.9550 -104.6662 -104.1451 -103.3151 -102.3964 -101.7745 -101.7435 -102.3606 -103.4792 -104.8383 -106.0849 -106.7613 -106.4025 -104.7946 -102.5177 -100.0414 -98.2154 -97.4830 -97.6356 -98.0690 -98.3446 -98.5923 -99.3921 -101.2324 -103.9981 -106.9319 -109.1075 -110.0159 -109.7886 -108.9207 -107.7970 -106.4663 -104.8286 -102.9898 -101.3861 -100.5218 -100.5535 -101.1264 -101.6397 -101.7382 -101.5784 -101.6500 -102.3111 -103.4648 -104.6669 -105.5488 -106.1502 -106.8475 -107.9494 -109.3474 -110.5574 -111.1227 -111.0016 -110.5814 -110.3021 -110.2457 -110.1060 -109.4312 -108.1692 -106.7008 -105.5368 -104.8759 -104.4517 -103.8135 -102.7787 -101.6324 -100.8875 -100.8273 -101.2595 -101.7051 -101.8437 -101.7937 -101.9476 -102.6274 -103.6292 -104.4604 -104.7286 -104.4874 -104.1743 -104.2003 -104.5763 -104.9265 -104.8718 -104.4212 -103.9980 -104.0729 -104.7449 -105.6612 -106.3492 -106.6480 -106.8339 -106.9594 -107.6623 -108.3760 -108.5736 -108.0079 -106.9333 -105.8856 -105.2312 -104.9034 -104.5636 -104.0205 -103.4941 -103.4612 -104.2139 -105.5445 -106.8593 -107.6323 -107.7970 -107.7335 -107.8847 -108.6371 -109.1079 -109.4464 -109.6736 -110.1211 -111.0690 -112.3663 -113.4235 -113.6374 -112.9045 -111.7701 -111.0636 -111.3116 -112.4028 -113.7534 -114.7899 -115.3251 -115.5470 -115.7099 -115.8638 -115.8617 -115.5746 -115.0389 -114.2396 -113.4148 -112.4414 -111.2658 -110.1887 -109.8594 -110.8526 -113.1229 -115.8372 -117.8327 -118.4046 -117.7834 -116.8700 -116.4296 -116.4435 -116.2166 -115.1710 -113.5986 -112.6249 -113.3131 -115.6509 -118.3494 -119.7278 -118.9903 -116.8095 -114.7048 -113.7710 -113.9041 -114.2032 -114.1056 -114.0923 -115.2023 -117.7829 -120.7400 -122.1635 -120.8868 -117.5640 -114.2142 -112.6067 -112.9751 -114.2117 -115.2130 -115.9163 -116.9627 -118.4510 -119.2840 -118.0018 -114.3500 -109.9142 -107.0268 -106.9330 -108.9802 -111.5098 -113.3668 -114.4433 -116.9365 -116.3566 -114.0320 -110.2881 -106.7162 -105.1464 -106.1368 -108.5983 -110.9192 -112.2583 -112.6226 -111.9843 -109.9272
-104.7728 -105.9200 -105.9113 -105.7958 -105.9453 -105.4732 -103.5521 -100.9327 -99.7025 -101.3937 -105.4561 -109.6927 -112.1149 -110.4216 -109.5761 -108.3455 -106.8320 -104.9703 -103.2679 -102.7048 -103.8222 -106.0522 -108.0872 -108.9276 -108.5411 -107.5578 -106.4873 -105.3659 -104.1282 -103.1149 -102.9974 -104.1153 -105.9555 -107.4129 -107.6684 -106.8553 -105.8782 -105.5748 -106.0328 -106.6740 -106.9410 -106.8552 -106.9042 -107.4171 -108.0940 -108.1826 -107.1482 -105.2127 -103.2633 -102.2144 -102.3768 -103.3356 -104.3635 -104.9571 -105.0598 -104.8826 -104.5896 -104.1641 -103.5285 -102.7318 -101.9893 -101.5548 -101.5763 -102.0772 -103.0275 -104.3602 -105.8612 -107.0600 -107.3237 -106.2034 -103.9714 -101.3154 -99.0992 -97.9717 -97.8739 -98.2050 -98.3939 -98.4156 -98.8083 -100.1960 -102.7083 -105.7892 -108.5407 -110.2986 -110.9633 -110.8533 -110.2799 -109.2635 -107.6448 -105.4473 -103.1049 -101.2885 -100.4513 -100.4913 -100.8511 -100.9809 -100.7772 -100.6144 -100.9580 -101.9145 -103.1267 -104.0994 -104.6503 -105.0654 -105.8158 -107.0944 -108.6002 -109.7726 -110.2657 -110.2329 -110.1903 -110.4833 -111.0357 -111.3912 -111.1555 -110.3702 -109.4829 -108.9407 -108.7824 -108.6086 -107.9621 -106.7753 -105.4738 -104.6377 -104.5209 -104.8605 -105.1429 -105.0812 -104.8545 -104.9729 -105.7005 -106.8459 -107.8701 -108.3428 -108.3016 -108.1874 -108.4187 -108.9948 -109.4921 -109.4565 -108.8313 -108.0286 -107.5748 -107.6522 -107.9531 -107.9775 -107.1032 -106.1542 -105.3892 -105.0944 -105.0843 -104.8850 -104.1968 -103.2122 -102.4915 -102.4987 -103.2109 -104.1465 -104.7824 -104.9811 -105.0487 -105.3893 -106.0902 -106.8332 -107.2179 -107.1928 -107.4688 -107.9071 -109.1686 -110.8397 -112.1623 -112.5758 -112.0981 -111.2443 -110.5892 -110.3711 -110.4611 -110.6628 -111.0023 -111.7053 -112.8869 -114.2881 -115.3674 -115.7194 -115.4482 -115.1172 -115.2591 -115.7547 -115.9567 -115.2290 -113.3835 -111.1255 -109.6588 -109.8489 -111.5882 -113.8674 -115.5029 -115.9487 -115.5683 -115.1891 -115.3431 -115.8335 -115.9758 -115.2920 -114.0556 -113.2060 -113.6667 -115.5958 -118.1709 -120.0980 -120.4667 -119.2989 -117.3911 -115.6233 -114.3368 -113.3062 -112.2827 -111.5490 -111.8768 -113.8245 -116.9817 -119.9336 -121.1398 -120.0730 -117.6276 -115.3922 -114.4051 -114.5154 -114.9017 -115.1501 -115.7093 -117.1807 -119.1888 -120.1692 -118.5648 -114.4112 -109.6859 -106.8880 -107.0814 -109.2514 -111.5351 -112.9810 -114.0028 -115.1928 -118.0269 -116.9611 -113.3254 -108.6098 -105.4855 -105.6024 -108.2401 -111.1540 -112.6186 -112.5139 -111.5907 -110.1900 -108.1140
-103.3502 -105.0167 -105.6514 -105.8356 -106.3626 -106.8179 -105.9498 -103.4141 -100.7498 -100.2651 -102.8918 -107.2462 -110.8368 -110.2465 -109.8871 -108.8799 -107.8422 -106.5496 -104.7747 -103.0917 -102.6006 -103.8546 -106.1924 -108.2112 -108.8867 -108.2313 -106.9625 -105.7000 -104.5757 -103.5327 -102.7897 -102.8238 -103.8541 -105.4294 -106.6427 -106.8348 -106.1210 -105.2391 -104.8848 -105.1712 -105.6852 -106.0048 -106.1179 -106.3404 -106.8605 -107.4078 -107.4014 -106.4543 -104.7669 -103.0521 -102.0571 -102.0834 -102.8703 -103.8662 -104.6092 -104.9201 -104.8379 -104.4547 -103.8367 -103.0633 -102.2779 -101.6551 -101.3158 -101.2983 -101.6297 -102.4012 -103.7105 -105.4590 -107.1816 -108.1333 -107.6752 -105.7506 -103.1685 -100.6943 -99.1282 -98.6091 -98.6558 -98.6608 -98.4452 -98.4127 -99.2095 -101.1673 -103.9945 -106.9488 -109.3238 -110.8359 -111.6172 -111.8824 -111.6157 -110.5830 -108.6501 -106.0925 -103.5707 -101.7522 -100.8743 -100.6286 -100.4682 -100.0808 -99.6261 -99.5459 -100.1277 -101.2158 -102.3269 -103.0632 -103.4510 -103.8990 -104.8116 -106.2007 -107.6425 -108.6217 -109.0015 -109.0445 -109.2746 -109.9542 -110.8766 -111.5560 -111.6568 -111.2793 -110.8518 -110.7348 -110.8958 -110.9504 -110.5331 -109.6641 -108.7768 -108.3723 -108.6000 -109.1352 -109.4654 -109.3274 -108.9589 -108.8254 -109.2359 -110.0360 -110.7313 -110.9100 -110.5892 -110.1797 -110.1001 -110.3866 -110.6454 -110.3931 -109.4834 -108.2424 -107.1940 -106.6180 -105.9227 -105.2524 -104.0837 -102.6061 -101.3513 -100.7693 -100.8763 -101.2813 -101.5617 -101.6464 -101.8614 -102.5977 -103.9016 -105.3638 -106.4190 -106.8047 -106.7782 -106.8986 -107.5567 -108.6519 -109.9874 -110.3520 -110.1251 -109.5945 -109.1281 -108.8322 -108.5166 -107.9932 -107.4148 -107.2993 -108.1652 -110.0635 -112.4220 -114.3759 -115.3531 -115.4528 -115.3086 -115.5441 -116.2560 -116.9329 -116.6445 -115.2690 -113.1372 -111.0150 -109.6582 -109.4152 -110.1543 -111.4757 -112.9780 -114.3810 -115.5001 -116.1954 -116.3939 -116.1483 -115.6297 -115.0270 -114.4512 -113.9602 -113.6891 -113.9162 -114.9135 -116.6406 -118.5549 -119.7922 -119.6756 -118.1865 -116.0029 -114.0453 -112.8998 -112.5932 -112.8631 -113.5885 -114.8984 -116.8276 -118.9022 -120.1784 -119.8424 -117.8836 -115.2068 -113.0363 -112.1290 -112.4812 -113.6831 -115.4131 -117.4806 -119.4342 -120.3612 -119.3709 -116.4504 -112.7894 -110.0642 -109.2304 -109.9669 -111.2870 -112.5929 -113.9696 -115.4290 -116.1387 -116.8285 -113.0540 -108.3249 -105.3128 -105.5947 -108.3654 -111.3240 -112.8144 -112.9804 -112.8565 -112.6873 -111.6008 -109.0428
-102.1076 -103.7067 -105.0567 -105.7903 -106.5335 -107.4683 -107.6376 -105.9935 -102.9884 -100.7191 -101.2037 -104.4930 -108.5678 -109.2371 -109.8415 -109.1929 -108.4004 -107.6557 -106.3981 -104.4498 -102.6757 -102.3552 -103.9289 -106.4591 -108.3619 -108.6639 -107.5908 -106.0687 -104.8005 -103.8579 -103.0410 -102.4271 -102.4290 -103.3127 -104.7490 -105.9328 -106.2011 -105.5627 -104.6467 -104.1470 -104.2941 -104.8039 -105.2663 -105.5423 -105.7955 -106.1828 -106.5630 -106.5340 -105.7733 -104.3682 -102.8365 -101.8182 -101.6891 -102.3766 -103.4673 -104.4723 -105.0488 -105.0747 -104.6100 -103.8266 -102.9437 -102.1608 -101.5900 -101.2355 -101.0654 -101.1368 -101.6533 -102.8467 -104.7208 -106.8511 -108.4556 -108.7717 -107.5215 -105.2510 -102.7969 -100.9246 -99.9677 -99.6488 -99.4297 -99.0192 -98.6275 -98.7991 -99.9686 -102.1085 -104.7377 -107.2528 -109.2882 -110.8153 -111.9361 -112.6015 -112.5388 -111.4694 -109.4304 -106.8895 -104.5249 -102.8208 -101.7994 -101.1068 -100.3748 -99.5534 -98.9408 -98.8959 -99.4954 -100.4347 -101.2642 -101.7536 -102.0688 -102.6052 -103.6210 -105.0084 -106.3168 -107.1754 -107.5677 -107.8476 -108.4281 -109.4149 -110.4935 -111.1712 -111.1696 -110.6417 -110.0360 -109.7300 -109.7491 -109.8049 -109.6063 -109.1613 -108.7971 -108.8787 -109.4737 -110.2505 -110.7726 -110.7720 -110.4141 -110.1069 -110.1343 -110.4019 -110.5132 -110.1122 -109.1962 -108.1276 -107.3353 -106.9623 -106.7633 -106.3396 -105.5087 -104.4866 -103.3192 -102.8999 -102.8980 -102.9154 -102.5892 -101.9083 -101.2292 -100.9775 -101.2924 -101.9194 -102.4426 -102.6536 -102.7391 -103.1234 -104.1020 -105.5774 -107.1227 -108.3098 -109.0159 -109.4445 -110.1495 -110.4113 -110.3831 -109.6916 -108.3046 -106.6866 -105.5690 -105.4911 -106.4596 -107.9850 -109.4533 -110.5350 -111.3232 -112.1333 -113.1692 -114.3419 -115.3654 -115.9985 -116.0844 -115.6813 -115.0153 -114.0483 -112.7783 -111.4523 -110.5967 -110.7414 -111.9973 -113.8417 -115.3539 -115.7965 -115.1186 -113.9707 -113.1879 -113.1374 -113.4694 -113.5026 -112.9371 -112.2766 -112.5384 -114.4152 -117.5564 -120.6053 -122.0499 -121.2632 -118.9119 -116.3966 -114.7855 -114.1331 -113.7390 -113.0676 -112.4384 -112.7903 -114.6855 -117.4825 -119.5410 -119.4139 -117.0415 -113.8780 -111.7968 -111.7157 -113.1322 -114.8879 -116.3185 -117.6308 -119.1988 -120.6348 -120.7573 -118.6333 -114.6818 -110.6579 -108.4175 -108.5916 -110.3789 -112.4973 -114.1937 -115.3222 -115.6924 -114.7605 -114.2386 -110.7582 -107.9644 -107.3482 -108.8924 -111.2186 -112.9515 -113.7868 -114.1356 -113.9730 -112.5362 -109.4627 -106.0017
-101.6443 -102.3147 -104.0155 -105.4916 -106.5885 -107.6825 -108.4978 -108.0049 -105.6839 -102.6375 -101.0483 -102.3099 -105.7127 -107.1851 -109.0797 -109.2354 -108.6901 -108.2238 -107.5740 -106.0782 -103.8621 -102.1371 -102.2041 -104.1845 -106.7876 -108.3491 -108.1269 -106.6709 -105.0759 -103.9779 -103.2515 -102.5336 -101.8680 -101.7496 -102.5596 -104.0307 -105.3273 -105.6903 -105.0426 -104.0121 -103.3863 -103.5130 -104.1449 -104.7844 -105.1431 -105.3012 -105.4810 -105.7115 -105.7260 -105.1852 -104.0165 -102.5665 -101.4379 -101.1347 -101.7731 -103.0362 -104.3675 -105.2543 -105.4388 -104.9722 -104.1252 -103.2216 -102.4807 -101.9427 -101.5168 -101.1297 -100.8772 -101.0529 -101.9886 -103.7792 -106.0788 -108.1495 -109.1904 -108.7680 -107.0719 -104.9388 -102.9851 -101.6868 -101.0082 -100.5807 -100.0820 -99.5290 -99.2625 -99.6805 -100.9336 -102.8245 -104.9628 -107.0226 -108.8813 -110.5384 -111.9225 -112.7793 -112.7766 -111.7510 -109.8914 -107.6887 -105.6674 -104.0977 -102.9047 -101.8361 -100.7421 -99.7339 -99.0954 -99.0313 -99.4705 -100.0982 -100.5913 -100.8638 -101.1141 -101.6663 -102.6223 -103.8360 -104.9864 -105.8518 -106.4845 -107.1399 -108.0177 -109.0335 -109.8252 -110.0060 -109.4657 -108.4768 -107.5148 -106.9354 -106.7617 -106.7412 -106.6103 -106.3370 -106.1433 -106.2810 -106.8475 -107.5784 -108.1177 -108.2521 -108.0652 -107.8442 -107.8199 -107.9599 -107.9891 -107.6229 -106.8159 -105.8189 -104.9936 -104.5400 -104.3610 -104.1766 -103.4060 -102.6580 -101.9868 -101.6646 -101.7206 -101.9137 -101.9378 -101.6895 -101.3755 -101.3659 -101.9127 -102.9614 -104.2061 -105.3352 -106.2554 -107.1061 -108.0548 -109.0551 -109.7856 -109.8416 -109.3165 -107.7494 -106.0994 -104.8855 -104.3700 -104.4953 -105.0452 -105.8647 -106.9458 -108.3228 -109.9035 -111.4213 -112.5818 -113.2875 -113.7313 -114.2403 -114.9692 -115.4217 -115.3710 -114.4191 -112.6502 -110.7238 -109.5505 -109.7429 -111.2162 -113.2252 -114.8240 -115.4370 -115.1487 -114.5296 -114.1476 -114.1366 -114.1454 -113.6967 -112.6778 -111.5731 -111.2280 -112.2809 -114.6576 -117.5099 -119.6749 -120.3582 -119.5674 -117.9942 -116.4527 -115.3262 -114.4614 -113.5734 -112.7694 -112.6594 -113.8649 -116.3052 -118.9274 -120.2510 -119.3972 -116.7788 -113.8318 -111.9680 -111.6259 -112.2311 -113.0306 -113.9289 -115.4441 -117.8066 -120.1726 -120.9281 -119.0058 -115.0290 -111.0972 -109.2591 -110.0085 -112.1615 -114.1310 -115.2613 -115.9142 -116.4121 -116.2046 -114.3447 -112.8120 -108.9688 -106.8186 -107.3930 -109.8515 -112.4018 -113.8467 -114.1468 -113.6719 -112.3748 -110.0715 -107.4221 -106.0949
-102.4250 -101.4204 -102.6958 -104.7444 -106.4322 -107.6877 -108.7382 -109.1462 -108.0457 -105.3742 -102.5429 -101.5208 -103.1130 -104.3339 -107.2910 -108.6906 -108.7598 -108.4460 -108.1294 -107.3015 -105.4654 -103.1321 -101.7045 -102.2760 -104.5511 -106.9886 -108.0426 -107.3254 -105.6712 -104.1891 -103.3081 -102.6827 -101.8853 -101.0602 -100.8523 -101.7165 -103.3399 -104.7727 -105.1636 -104.4314 -103.2894 -102.6387 -102.8822 -103.7212 -104.5268 -104.8957 -104.9013 -104.8825 -105.0242 -105.1328 -104.7972 -103.7807 -102.3043 -100.9850 -100.4743 -101.0576 -102.4856 -104.1278 -105.3252 -105.7139 -105.3437 -104.5587 -103.7478 -103.1247 -102.6606 -102.1911 -101.6177 -101.0662 -100.8861 -101.4694 -102.9833 -105.1831 -107.4416 -109.0079 -109.3635 -108.4698 -106.7937 -104.9682 -103.4407 -102.4011 -101.7235 -101.1755 -100.6488 -100.2505 -100.2138 -100.7205 -101.7805 -103.2471 -104.9319 -106.7056 -108.4974 -110.2071 -111.6260 -112.4623 -112.4766 -111.6352 -110.1569 -108.4082 -106.7140 -105.2160 -103.8770 -102.6108 -101.4263 -100.4639 -99.8997 -99.7989 -100.0451 -100.4092 -100.7057 -100.9504 -101.2562 -101.8152 -102.6890 -103.7721 -104.8717 -105.8398 -106.6450 -107.3278 -107.8901 -108.2278 -108.1775 -107.6498 -106.7413 -105.7259 -104.9158 -104.4870 -104.3926 -104.4294 -104.4063 -104.2690 -104.1929 -104.3122 -104.6887 -105.2061 -105.6532 -105.8820 -105.9137 -105.9073 -106.0177 -106.2595 -106.4880 -106.5140 -106.2581 -105.8190 -105.4006 -105.1549 -104.7304 -104.4532 -103.9514 -103.2043 -102.3731 -101.6988 -101.3455 -101.3154 -101.4997 -101.8146 -102.3013 -103.0985 -104.3010 -105.8182 -107.3513 -108.5201 -109.0547 -108.9192 -108.2865 -107.4009 -106.6935 -105.6546 -104.7500 -104.1113 -103.9395 -104.3872 -105.4146 -106.7479 -108.0020 -108.9028 -109.4555 -109.9296 -110.6581 -111.7813 -113.1123 -114.0519 -114.2447 -113.6415 -112.4751 -111.2520 -110.5109 -110.5822 -111.4649 -112.8582 -114.3056 -115.3771 -115.8168 -115.6090 -114.9432 -114.0912 -113.2563 -112.4855 -111.7149 -110.9349 -110.3527 -110.3945 -111.4791 -113.6750 -116.4932 -119.0210 -120.3766 -120.2027 -118.8480 -117.0929 -115.6262 -114.6799 -114.0996 -113.7407 -113.7788 -114.5893 -116.2627 -118.2208 -119.3804 -118.8516 -116.6327 -113.6934 -111.3314 -110.3307 -110.6282 -111.7111 -113.2567 -115.3105 -117.8185 -120.0821 -120.8914 -119.4239 -116.1251 -112.6344 -110.6638 -110.7827 -112.2161 -113.7838 -114.9636 -115.9769 -116.9106 -117.0253 -115.2483 -111.4939 -109.3510 -106.9905 -107.5470 -110.2310 -113.0290 -114.4852 -114.6105 -114.1579 -113.3622 -111.7631 -109.2966 -107.1674 -107.1564
-104.5044 -101.6125 -101.5907 -103.5660 -105.8451 -107.4956 -108.6518 -109.5210 -109.5792 -108.0650 -105.1854 -102.4808 -101.7111 -101.4444 -104.5601 -107.1849 -108.3667 -108.4652 -108.2442 -107.8331 -106.7187 -104.6753 -102.4793 -101.4991 -102.4949 -104.8319 -106.9185 -107.4741 -106.4465 -104.8014 -103.5088 -102.7531 -102.0580 -101.0627 -100.0838 -99.8834 -100.8940 -102.6792 -104.1733 -104.5019 -103.6598 -102.4742 -101.9174 -102.3729 -103.4428 -104.3822 -104.7315 -104.6087 -104.4704 -104.6106 -104.8536 -104.6966 -103.7643 -102.1938 -100.6385 -99.8837 -100.3555 -101.8616 -103.7211 -105.1708 -105.7689 -105.5571 -104.9196 -104.2771 -103.8276 -103.4889 -103.0463 -102.3844 -101.6417 -101.1866 -101.4295 -102.5808 -104.4959 -106.6941 -108.5455 -109.5294 -109.4358 -108.4168 -106.8900 -105.2583 -103.8414 -102.7751 -102.0278 -101.5038 -101.1421 -100.9580 -101.0225 -101.4126 -102.1706 -103.2904 -104.7224 -106.3758 -108.1123 -109.7430 -111.0490 -111.8328 -111.9806 -111.5015 -110.5181 -109.2122 -107.7581 -106.2809 -104.8587 -103.5535 -102.4376 -101.5897 -101.0635 -100.8542 -100.8951 -101.1284 -101.4556 -101.8897 -102.4794 -103.2757 -104.2761 -105.3932 -106.4685 -107.3223 -107.8157 -107.8932 -107.5889 -106.9999 -106.2484 -105.4545 -104.7256 -104.1513 -103.7906 -103.6541 -103.6991 -103.8312 -104.0330 -104.2413 -104.4841 -104.8010 -105.2025 -105.6488 -106.0673 -106.3944 -106.6117 -106.7464 -106.8389 -106.9019 -106.9062 -106.8021 -106.5632 -106.2155 -105.8305 -105.0304 -104.5436 -104.0815 -103.6353 -103.2284 -102.9357 -102.8603 -103.0799 -103.5978 -104.3305 -105.1379 -105.8739 -106.4253 -106.7202 -106.7172 -106.3996 -105.7911 -104.9848 -104.1559 -103.7402 -103.4299 -103.6508 -104.3337 -105.2842 -106.2660 -107.1012 -107.7351 -108.2367 -108.7426 -109.3752 -110.1742 -111.0668 -111.7987 -112.0754 -111.8878 -111.2262 -110.2814 -109.4278 -109.1071 -109.6390 -111.0430 -112.9760 -114.8480 -116.0825 -116.3882 -115.8818 -114.9763 -114.0975 -113.4155 -112.7834 -111.9412 -110.8467 -109.8740 -109.6870 -110.8200 -113.2350 -116.1929 -118.5858 -119.5529 -118.9700 -117.4620 -115.9284 -114.9403 -114.4720 -114.1619 -113.8450 -113.8503 -114.7418 -116.6834 -119.0005 -120.4169 -119.8888 -117.4039 -114.0690 -111.3693 -110.1940 -110.4268 -111.3856 -112.6122 -114.1997 -116.3420 -118.6232 -119.9063 -119.1197 -116.2899 -112.7951 -110.4709 -110.2996 -111.8506 -113.9204 -115.6451 -116.9381 -117.9143 -118.1298 -116.7029 -113.3576 -109.2498 -108.4750 -108.3322 -110.3800 -112.9448 -114.5221 -114.8537 -114.5334 -113.8311 -112.2945 -109.6777 -107.0052 -106.2319 -108.5323
-107.4212 -103.1653 -101.3393 -102.3261 -104.7286 -106.9179 -108.3641 -109.4388 -110.2379 -110.0350 -108.0956 -104.8728 -102.0837 -99.5258 -101.5351 -104.6599 -107.1149 -108.1360 -108.1477 -107.8247 -107.2262 -105.9341 -103.9156 -102.0198 -101.4451 -102.6580 -104.8616 -106.5761 -106.8007 -105.6861 -104.1678 -103.0132 -102.2320 -101.3478 -100.1495 -99.1047 -99.0002 -100.1632 -102.0241 -103.4648 -103.6685 -102.7432 -101.5994 -101.2130 -101.8983 -103.1636 -104.1996 -104.5451 -104.3759 -104.2309 -104.4580 -104.8687 -104.8807 -104.0182 -102.3610 -100.5876 -99.5792 -99.8717 -101.3356 -103.2822 -104.8926 -105.6696 -105.6297 -105.1603 -104.6875 -104.3974 -104.1809 -103.7999 -103.1300 -102.3069 -101.6879 -101.6680 -102.4704 -104.0296 -106.0140 -107.9546 -109.4059 -110.0712 -109.8623 -108.8975 -107.4084 -105.7265 -104.1874 -103.0120 -102.2599 -101.8451 -101.6168 -101.4638 -101.3883 -101.5047 -101.9661 -102.8645 -104.1653 -105.7137 -107.3005 -108.7412 -109.9190 -110.7737 -111.2631 -111.3377 -110.9563 -110.1303 -108.9589 -107.6178 -106.3017 -105.1518 -104.2179 -103.4765 -102.8884 -102.4880 -102.2983 -102.4086 -102.8562 -103.6074 -104.5652 -105.6052 -106.6073 -107.4661 -108.0855 -108.3798 -108.2946 -107.8402 -107.1118 -106.2745 -105.5122 -104.9594 -104.6548 -104.5426 -104.5228 -104.5038 -104.5302 -104.6236 -104.8543 -105.2380 -105.7169 -106.1932 -106.5908 -106.8977 -107.1588 -107.4254 -107.7018 -107.9307 -108.0302 -107.9546 -107.7332 -107.4575 -107.2257 -106.7178 -106.4647 -106.1803 -105.8414 -105.4888 -105.2085 -105.0720 -105.0795 -105.1481 -105.1547 -105.0036 -104.6735 -104.2157 -103.7119 -103.2301 -102.8137 -102.5051 -102.3759 -102.8032 -103.2018 -103.9864 -105.0164 -106.0632 -106.9056 -107.4347 -107.7052 -107.8987 -108.2162 -108.7609 -109.4748 -110.1329 -110.3440 -110.0989 -109.4115 -108.4842 -107.6602 -107.3209 -107.7548 -109.0388 -110.9763 -113.1340 -114.9840 -116.1069 -116.3600 -115.9151 -115.1295 -114.3193 -113.5778 -112.7730 -111.7422 -110.5527 -109.6203 -109.5505 -110.7571 -113.1023 -115.8363 -117.9346 -118.6553 -117.9506 -116.4437 -114.9817 -114.0935 -113.7599 -113.6542 -113.6185 -113.9265 -115.0525 -117.1074 -119.4478 -120.8850 -120.4340 -118.0473 -114.7234 -111.8630 -110.3772 -110.2672 -110.9678 -112.0467 -113.5394 -115.5893 -117.8121 -119.1538 -118.5699 -115.9934 -112.6509 -110.3056 -110.0158 -111.4995 -113.6362 -115.5316 -117.0469 -118.3264 -118.9953 -118.1157 -115.1492 -110.9479 -107.5627 -108.7920 -110.5985 -113.3340 -115.2497 -115.7228 -115.2650 -114.4095 -112.9459 -110.4785 -107.5933 -106.0379 -107.3688 -111.3673
-110.3480 -105.8244 -102.3936 -101.6578 -103.3211 -105.7830 -107.7545 -109.1219 -110.2951 -111.0600 -110.4477 -107.8560 -104.1216 -99.3456 -99.2424 -101.6320 -104.8273 -107.0773 -107.8068 -107.5823 -107.1024 -106.4161 -105.1433 -103.2989 -101.6859 -101.3437 -102.5841 -104.6029 -106.0771 -106.1893 -105.1394 -103.7451 -102.6109 -101.6923 -100.6089 -99.2993 -98.2969 -98.3198 -99.5613 -101.3711 -102.6639 -102.7327 -101.7813 -100.7388 -100.5256 -101.3787 -102.7581 -103.8535 -104.2339 -104.1137 -104.0608 -104.4334 -105.0270 -105.2158 -104.4639 -102.8011 -100.8963 -99.6739 -99.7494 -101.0718 -102.9945 -104.6926 -105.6274 -105.7660 -105.4590 -105.1141 -104.9135 -104.7513 -104.3947 -103.7205 -102.8529 -102.1209 -101.8846 -102.3575 -103.5262 -105.1865 -107.0388 -108.7703 -110.0945 -110.7729 -110.6573 -109.7568 -108.1757 -106.3469 -104.6979 -103.5193 -102.8554 -102.5228 -102.2579 -101.9008 -101.5009 -101.2768 -101.4643 -102.1581 -103.2539 -104.5223 -105.7534 -106.8626 -107.8874 -108.8841 -109.8155 -110.5209 -110.7992 -110.5462 -109.8436 -108.9293 -108.0659 -107.3967 -106.8906 -106.4433 -105.9340 -105.4305 -105.1254 -105.2255 -105.8025 -106.7195 -107.6863 -108.4083 -108.7323 -108.6958 -108.4573 -108.1640 -107.8581 -107.4853 -106.9902 -106.4129 -105.9024 -105.6298 -105.6666 -105.9107 -106.2139 -106.3827 -106.4027 -106.4082 -106.5804 -107.0073 -107.6105 -108.1936 -108.5767 -108.7190 -108.7391 -108.8188 -109.0624 -109.4163 -109.7080 -109.7755 -109.5897 -109.2781 -108.6049 -108.3468 -108.1665 -107.8824 -107.3161 -106.4237 -105.3317 -104.2534 -103.3498 -102.6382 -102.0176 -101.3892 -100.7796 -100.3678 -100.3889 -100.9762 -102.0530 -103.5651 -104.6831 -105.5214 -106.0583 -106.4276 -106.7935 -107.2351 -107.7166 -108.1477 -108.4676 -108.6725 -108.6383 -108.4508 -108.0369 -107.3467 -106.4823 -105.7663 -105.6605 -106.5435 -108.4627 -111.0278 -113.5413 -115.3192 -116.0225 -115.7969 -115.1280 -114.4996 -114.0802 -113.6509 -112.8342 -111.4742 -109.8960 -108.8322 -109.0204 -110.7083 -113.4025 -116.0614 -117.6481 -117.7042 -116.5682 -115.0887 -114.0366 -113.6420 -113.5929 -113.4804 -113.3077 -113.6034 -114.9847 -117.4864 -120.2342 -121.8233 -121.2143 -118.4900 -114.8610 -111.8763 -110.4395 -110.4015 -111.0099 -111.7434 -112.7304 -114.3599 -116.4986 -118.1651 -118.1220 -115.9495 -112.6130 -109.9195 -109.2595 -110.7109 -113.2451 -115.7246 -117.6671 -119.0905 -119.8053 -119.1408 -116.5863 -112.7072 -109.2131 -107.8460 -111.0336 -113.4575 -115.3717 -116.0360 -115.8002 -115.1504 -113.8577 -111.3604 -107.9883 -105.4688 -105.7981 -109.4148 -114.5768
-112.4385 -108.8484 -104.7154 -102.1492 -102.2094 -104.2046 -106.6171 -108.5343 -110.0397 -111.3314 -111.8304 -110.4921 -107.0684 -101.0068 -98.6008 -99.1020 -101.8811 -105.0202 -106.8846 -107.1909 -106.7183 -106.1952 -105.5927 -104.4591 -102.7729 -101.2975 -101.0153 -102.2120 -104.1338 -105.5560 -105.7170 -104.7690 -103.4194 -102.2068 -101.1341 -99.9429 -98.6558 -97.7739 -97.8937 -99.1045 -100.7573 -101.8682 -101.8452 -100.9324 -100.0072 -99.9028 -100.8071 -102.1968 -103.3138 -103.7644 -103.7611 -103.8477 -104.3669 -105.1192 -105.4838 -104.9022 -103.3497 -101.4384 -100.0786 -99.9369 -101.0598 -102.8942 -104.6556 -105.7764 -106.1476 -106.0406 -105.8172 -105.6577 -105.4839 -105.0934 -104.3749 -103.4371 -102.5715 -102.0969 -102.2057 -102.9126 -104.1071 -105.6401 -107.3592 -109.0762 -110.5237 -111.3797 -111.3868 -110.5061 -108.8413 -106.9788 -105.4116 -104.4056 -103.9000 -103.5963 -103.1808 -102.5382 -101.8183 -101.3202 -101.2820 -101.7242 -102.4526 -103.2085 -103.8531 -104.4491 -105.1824 -106.1850 -107.3917 -108.5419 -109.3305 -109.6029 -109.4564 -109.1747 -109.0380 -109.1697 -109.4262 -109.5960 -109.5493 -109.3694 -109.3094 -109.6075 -110.2918 -111.1184 -111.6985 -111.7339 -111.2024 -110.3643 -109.5871 -109.1121 -108.9233 -108.8030 -108.5243 -108.0358 -107.5075 -107.1966 -107.3095 -107.7708 -108.3456 -108.7781 -108.9743 -109.0647 -109.3016 -109.8665 -110.7244 -111.6324 -112.2956 -112.5602 -112.5055 -112.3694 -112.3612 -112.4969 -112.5750 -112.3108 -111.5336 -109.8597 -108.2711 -106.7358 -105.3798 -104.1216 -102.7804 -101.2646 -99.7041 -98.4234 -97.7685 -97.9036 -98.7164 -99.8937 -101.1133 -102.2155 -103.4822 -104.4714 -105.5865 -106.7025 -107.5848 -108.0548 -108.1343 -108.0489 -108.0744 -108.3225 -108.5385 -108.4073 -107.6199 -106.1670 -104.4373 -103.0813 -102.7073 -103.5833 -105.5126 -107.9479 -110.2656 -112.0401 -113.1712 -113.8191 -114.2166 -114.4866 -114.5717 -114.3040 -113.5610 -112.4091 -111.1525 -110.2514 -110.1399 -111.0198 -112.7299 -114.7662 -116.4693 -117.3017 -117.0795 -116.0244 -114.6027 -113.2564 -112.2100 -111.4888 -111.1155 -111.2892 -112.3390 -114.4229 -117.1930 -119.7485 -121.0273 -120.4316 -118.2411 -115.4627 -113.1915 -111.9617 -111.6002 -111.6701 -112.0540 -113.0809 -115.0217 -117.4277 -119.0451 -118.5837 -115.7976 -111.9218 -108.9604 -108.3207 -109.9159 -112.4781 -114.7320 -116.3034 -117.5494 -118.6241 -118.8928 -117.4378 -114.1987 -110.5133 -108.3387 -108.7747 -113.2687 -116.0621 -117.7498 -118.0946 -117.4184 -115.7753 -112.9385 -109.2694 -106.2856 -105.8914 -108.7527 -113.4780 -117.6153
-113.1928 -111.3132 -107.7005 -103.9783 -102.0747 -102.6914 -104.9527 -107.4670 -109.5244 -111.1705 -112.3187 -112.1869 -109.9124 -103.8690 -99.9150 -98.0968 -99.2162 -102.2030 -105.0453 -106.3766 -106.2744 -105.6951 -105.2973 -104.8736 -103.8490 -102.1877 -100.6964 -100.3982 -101.6016 -103.5694 -105.0808 -105.3431 -104.4474 -103.0576 -101.7396 -100.5885 -99.4305 -98.2845 -97.5496 -97.7008 -98.7877 -100.2394 -101.2053 -101.1746 -100.3617 -99.5372 -99.4449 -100.2717 -101.5740 -102.6810 -103.2230 -103.3634 -103.5768 -104.1816 -105.0162 -105.5171 -105.1376 -103.7898 -101.9829 -100.5578 -100.2041 -101.0819 -102.7795 -104.6006 -105.9666 -106.6738 -106.8747 -106.8521 -106.7751 -106.6049 -106.1873 -105.4319 -104.4293 -103.4278 -102.7006 -102.4151 -102.5953 -103.1873 -104.1508 -105.4830 -107.1470 -108.9642 -110.5785 -111.5577 -111.5972 -110.7039 -109.0694 -107.3502 -106.0396 -105.3023 -104.9600 -104.6544 -104.1035 -103.2848 -102.4304 -101.8509 -101.7146 -101.9381 -102.2589 -102.4355 -102.4287 -102.4340 -102.7413 -103.5191 -104.6765 -105.9014 -106.8533 -107.3790 -107.6038 -107.8354 -108.3916 -109.2878 -110.3567 -111.3060 -111.9470 -112.3225 -112.6599 -113.1849 -113.9320 -114.6906 -115.1306 -115.0227 -114.4030 -113.5656 -112.8856 -112.5886 -112.6210 -112.7057 -112.5464 -112.0314 -111.3524 -110.8206 -110.7086 -111.0479 -111.6141 -112.0848 -112.2610 -112.1978 -112.1528 -112.3902 -112.9754 -113.7057 -114.2241 -114.2411 -113.7098 -112.8365 -111.9196 -111.1320 -110.3991 -109.4594 -107.6443 -105.6440 -103.4123 -101.3739 -99.8846 -99.0504 -98.7129 -98.6039 -98.5567 -98.6217 -99.0067 -99.8872 -101.2245 -102.9786 -104.1785 -104.9080 -105.1910 -105.3203 -105.6592 -106.3902 -107.3767 -108.2273 -108.4889 -107.9457 -106.7375 -105.2651 -103.9892 -103.2352 -103.1185 -103.6004 -104.5992 -106.0488 -107.8641 -109.8590 -111.7162 -113.0731 -113.6906 -113.5917 -113.0550 -112.4452 -111.9863 -111.6410 -111.1993 -110.5279 -109.7961 -109.4839 -110.1159 -111.8693 -114.3284 -116.5947 -117.7338 -117.3002 -115.5938 -113.4699 -111.8205 -111.0844 -111.1219 -111.5183 -112.0486 -112.9046 -114.4754 -116.8486 -119.4650 -121.2730 -121.3417 -119.4977 -116.4903 -113.5400 -111.6137 -110.9763 -111.3139 -112.2170 -113.5157 -115.1500 -116.7723 -117.6021 -116.8452 -114.4000 -111.1868 -108.6808 -107.9467 -108.9863 -110.9674 -113.0761 -115.1279 -117.3208 -119.4414 -120.4899 -119.3388 -115.9375 -111.8420 -109.3413 -109.7878 -112.6015 -117.8565 -119.7000 -119.6562 -118.4090 -116.5376 -113.9724 -110.6234 -107.3047 -105.6425 -106.8035 -110.3285 -114.3894 -117.2794
-112.6350 -112.5251 -110.4084 -106.7214 -103.2958 -101.9703 -103.1676 -105.8262 -108.5641 -110.7154 -112.2331 -112.8749 -111.8904 -106.8834 -102.6784 -99.1013 -97.9250 -99.4769 -102.3920 -104.7561 -105.5673 -105.2198 -104.7183 -104.5356 -104.2468 -103.1965 -101.4194 -99.8429 -99.5598 -100.8720 -102.9897 -104.6306 -104.9544 -104.0343 -102.5647 -101.1880 -100.0794 -99.0838 -98.1458 -97.5384 -97.6532 -98.5699 -99.8454 -100.7578 -100.8252 -100.1691 -99.4220 -99.2555 -99.9059 -101.0580 -102.1444 -102.7964 -103.0845 -103.3802 -103.9760 -104.7813 -105.3374 -105.1415 -104.0392 -102.3982 -100.9407 -100.3487 -100.9024 -102.3712 -104.1968 -105.8218 -106.9467 -107.5780 -107.8851 -108.0043 -107.9343 -107.5799 -106.8801 -105.9086 -104.8651 -103.9735 -103.3712 -103.0786 -103.0638 -103.3423 -104.0135 -105.1882 -106.8466 -108.7338 -110.3920 -111.3404 -111.3122 -110.4044 -108.9162 -107.4225 -106.3776 -105.8332 -105.5450 -105.1748 -104.5276 -103.6713 -102.8706 -102.3876 -102.2921 -102.4114 -102.4528 -102.2145 -101.7374 -101.2942 -101.2173 -101.6817 -102.5874 -103.6206 -104.4560 -104.9639 -105.3154 -105.7953 -106.6839 -108.0183 -109.5739 -111.0031 -112.0512 -112.7026 -113.1664 -113.7121 -114.4712 -115.3387 -116.0412 -116.3257 -116.1418 -115.6893 -115.2980 -115.2149 -115.4296 -115.7452 -115.8164 -115.4711 -114.7996 -114.1036 -113.7003 -113.7135 -113.9912 -114.2041 -114.0598 -113.4888 -112.6781 -111.9312 -111.4489 -111.1820 -110.8533 -110.1386 -108.8855 -107.2243 -105.4974 -104.0541 -103.0486 -102.0114 -101.3222 -100.5131 -99.6196 -98.9043 -98.6925 -99.1505 -100.1552 -101.3457 -102.3278 -103.2090 -103.3876 -103.5660 -104.0448 -104.9131 -105.9861 -106.9202 -107.4193 -107.4149 -107.0145 -106.3876 -105.6748 -104.8658 -103.8761 -102.7185 -101.6332 -101.0584 -101.4257 -102.8919 -105.1823 -107.6645 -109.6370 -110.6769 -110.8390 -110.5842 -110.4704 -110.7956 -111.4156 -111.8575 -111.6696 -110.7883 -109.6805 -109.1446 -109.8617 -111.9558 -114.8377 -117.4523 -118.8100 -118.4974 -116.8618 -114.7563 -113.0079 -111.9557 -111.3683 -110.7902 -110.0565 -109.5718 -110.0932 -112.1253 -115.3575 -118.6100 -120.4221 -119.9382 -117.4780 -114.3565 -112.0505 -111.3081 -111.8463 -112.8235 -113.6468 -114.4054 -115.5634 -117.2200 -118.6682 -118.7519 -116.7938 -113.3050 -109.8097 -107.8733 -108.1231 -110.0464 -112.6260 -115.1242 -117.2752 -118.8497 -119.2700 -117.9032 -114.8591 -111.4106 -109.3731 -109.8068 -112.2022 -114.9605 -118.7424 -119.2130 -118.8962 -118.1524 -116.5016 -113.3674 -109.3019 -106.1997 -105.9993 -109.0265 -113.6435 -117.5795 -119.6021
-111.2069 -112.3094 -111.9895 -109.4844 -105.6540 -102.5894 -101.9887 -103.9039 -106.9952 -109.8274 -111.7865 -112.8449 -112.7814 -109.1364 -105.8361 -101.7494 -98.6442 -97.9604 -99.6670 -102.3018 -104.1764 -104.6317 -104.2426 -103.9246 -103.9151 -103.6232 -102.4106 -100.4579 -98.8276 -98.6427 -100.1359 -102.4173 -104.1372 -104.4427 -103.4463 -101.9143 -100.5641 -99.6063 -98.8459 -98.1202 -97.5916 -97.6201 -98.3675 -99.5365 -100.5076 -100.7764 -100.3287 -99.6489 -99.3602 -99.7881 -100.7752 -101.8620 -102.6590 -103.1104 -103.4591 -103.9690 -104.6434 -105.1646 -105.1044 -104.2477 -102.7973 -101.3141 -100.4344 -100.5472 -101.6275 -103.3031 -105.0855 -106.6039 -107.7114 -108.4356 -108.8500 -108.9755 -108.7778 -108.2381 -107.4223 -106.4837 -105.5934 -104.8550 -104.2772 -103.8274 -103.5295 -103.5203 -104.0047 -105.1194 -106.7872 -108.6676 -110.2571 -111.1045 -111.0227 -110.1752 -108.9397 -107.6660 -106.7747 -106.2419 -105.8297 -105.2806 -104.5016 -103.6212 -102.8908 -102.5009 -102.4403 -102.4922 -102.3734 -101.9245 -101.2261 -100.5629 -100.2553 -100.4661 -101.1058 -101.8968 -102.5554 -103.0115 -103.3588 -103.8977 -104.8627 -106.2716 -107.8936 -109.3751 -110.4442 -111.0646 -111.4398 -111.8666 -112.5332 -113.3937 -114.1981 -114.6592 -114.6431 -114.2609 -113.7906 -113.5359 -113.5756 -113.7685 -113.8330 -113.5393 -112.8665 -112.0225 -111.3130 -110.9449 -110.8904 -110.9028 -110.6713 -110.0177 -109.0073 -107.9032 -106.9948 -106.4127 -106.0505 -105.6441 -104.9570 -103.9493 -102.8207 -101.8960 -101.4271 -101.1089 -101.3418 -101.5308 -101.4572 -101.1334 -100.7875 -101.0088 -101.3108 -101.9772 -102.7646 -103.4110 -103.8027 -104.0322 -104.3058 -104.8415 -105.4752 -105.8958 -105.7681 -104.9346 -103.5699 -102.1586 -101.2923 -101.3923 -102.5094 -104.3097 -106.2488 -107.8332 -108.8245 -109.2870 -109.4720 -109.6258 -109.8374 -110.0078 -109.9425 -109.5013 -108.7169 -107.8223 -107.1806 -107.1538 -107.9659 -109.6095 -111.8230 -114.1505 -116.0722 -117.1703 -117.2665 -116.4670 -115.0883 -113.5004 -111.9844 -110.6961 -109.7520 -109.3506 -109.7866 -111.2885 -113.7551 -116.6015 -118.8987 -119.8053 -119.0440 -117.0874 -114.8819 -113.2739 -112.5525 -112.4523 -112.5935 -112.9531 -113.9034 -115.7241 -118.0087 -119.5743 -119.1249 -116.2475 -111.9306 -108.0855 -106.3489 -107.0787 -109.3292 -111.7639 -113.6637 -115.1489 -116.5283 -117.5509 -117.4237 -115.6488 -112.8277 -110.5224 -110.1633 -111.9744 -114.9115 -117.6181 -121.4025 -122.1326 -121.7409 -119.8623 -116.1972 -111.4848 -107.6891 -106.8163 -109.2870 -113.4709 -116.9597 -118.4100 -118.2076
-109.4558 -111.0090 -112.0698 -111.3114 -108.3512 -104.5371 -102.0933 -102.3911 -104.9982 -108.3015 -110.9028 -112.3695 -112.8169 -110.2478 -108.3475 -105.0048 -101.1459 -98.4110 -97.9805 -99.6331 -101.9484 -103.4755 -103.7836 -103.4827 -103.3276 -103.3608 -102.9297 -101.4998 -99.4136 -97.8187 -97.7972 -99.4680 -101.8445 -103.5504 -103.7732 -102.6971 -101.1578 -99.9126 -99.1606 -98.6369 -98.0762 -97.5660 -97.4781 -98.0820 -99.2192 -100.3411 -100.8857 -100.6843 -100.0763 -99.6562 -99.8603 -100.7027 -101.8323 -102.8277 -103.4884 -103.9097 -104.3168 -104.8121 -105.2411 -105.2790 -104.6699 -103.4456 -101.9722 -100.7935 -100.3732 -100.8908 -102.1970 -103.9295 -105.6953 -107.2132 -108.3534 -109.0915 -109.4408 -109.4184 -109.0587 -108.4397 -107.6826 -106.9095 -106.1891 -105.5151 -104.8470 -104.1927 -103.6736 -103.5169 -103.9551 -105.0834 -106.7557 -108.5947 -110.1251 -110.9713 -111.0135 -110.4188 -109.5308 -108.5792 -107.7897 -107.1769 -106.5623 -105.7912 -104.8541 -103.9011 -103.1426 -102.7050 -102.5381 -102.4345 -102.1548 -101.5784 -100.7872 -100.0265 -99.5672 -99.5517 -99.9194 -100.4560 -100.9766 -101.3392 -101.6613 -102.1584 -103.0146 -104.2486 -105.6798 -107.0184 -108.0249 -108.6394 -109.0009 -109.3462 -109.8499 -110.5082 -111.1363 -111.4699 -111.3756 -110.8632 -110.1462 -109.4932 -109.0725 -108.8601 -108.6703 -108.2861 -107.6094 -106.7350 -105.9016 -105.3508 -105.1820 -105.2938 -105.4495 -105.4252 -105.1482 -104.7392 -104.4318 -104.4198 -104.7283 -105.1887 -105.5346 -105.5580 -105.2297 -104.7088 -104.2384 -103.9921 -103.9710 -104.0147 -103.9180 -103.5801 -103.0858 -102.6658 -102.5545 -102.8322 -103.4039 -103.9705 -104.0951 -103.6105 -102.6108 -101.4097 -100.3941 -99.8596 -99.9153 -100.4973 -101.4602 -102.6725 -104.0533 -105.5351 -106.9992 -108.2508 -109.0715 -109.3268 -109.0585 -108.4865 -107.9039 -107.5210 -107.3591 -107.2766 -107.1218 -106.9198 -106.9553 -107.6655 -109.3760 -112.0265 -115.0694 -117.6421 -118.9495 -118.6526 -117.0327 -114.8243 -112.8118 -111.4409 -110.6888 -110.2640 -109.9720 -109.9587 -110.6230 -112.2426 -114.5921 -116.8784 -118.1057 -117.6610 -115.7167 -113.1529 -111.0417 -110.0624 -110.2595 -111.2669 -112.7372 -114.5596 -116.6725 -118.6950 -119.8262 -119.2501 -116.7976 -113.2879 -110.1608 -108.5999 -108.8316 -110.1754 -111.7732 -113.2968 -114.9618 -116.8643 -118.3809 -118.3858 -116.2436 -112.6836 -109.6156 -108.8692 -110.8737 -114.4277 -117.7254 -119.6563 -122.2138 -121.6653 -119.9767 -116.9660 -112.9742 -109.3573 -107.8287 -109.0951 -112.1606 -115.1159 -116.6986 -117.0702 -117.0996
-107.7274 -109.2056 -110.8631 -111.6409 -110.3701 -107.1437 -103.6659 -102.0568 -103.2062 -106.2200 -109.3633 -111.4439 -112.3123 -110.3732 -109.6782 -107.7254 -104.4310 -100.7308 -98.1823 -97.8271 -99.3733 -101.4769 -102.8473 -103.1520 -102.9501 -102.8503 -102.7952 -102.1681 -100.5702 -98.4590 -96.9856 -97.1337 -98.9079 -101.2729 -102.8857 -103.0097 -101.8965 -100.4147 -99.3167 -98.7624 -98.4195 -97.9490 -97.3996 -97.1786 -97.6626 -98.8124 -100.1268 -100.9736 -101.0301 -100.5001 -99.9567 -99.9499 -100.6669 -101.8689 -103.1077 -104.0371 -104.5930 -104.9422 -105.2719 -105.5962 -105.7208 -105.3823 -104.4585 -103.1021 -101.7138 -100.7735 -100.6326 -101.3786 -102.8299 -104.6401 -106.4400 -107.9470 -109.0072 -109.5817 -109.7105 -109.4803 -109.0029 -108.3927 -107.7383 -107.0752 -106.3811 -105.6090 -104.7491 -103.8877 -103.2206 -102.9985 -103.4201 -104.5222 -106.1293 -107.8962 -109.4315 -110.4439 -110.8406 -110.7290 -110.3277 -109.8384 -109.2644 -108.6669 -107.9710 -107.1135 -106.1335 -105.1654 -104.3650 -103.8130 -103.4614 -103.1559 -102.7253 -102.0849 -101.2924 -100.5216 -99.9693 -99.7498 -99.8392 -100.1380 -100.4407 -100.6878 -100.9233 -101.2820 -101.8969 -102.8043 -103.9053 -105.0069 -105.9196 -106.5530 -106.9539 -107.2623 -107.6023 -108.0441 -108.4785 -108.7418 -108.6933 -108.3056 -107.6912 -107.0470 -106.5501 -106.2668 -106.1294 -105.9929 -105.7369 -105.3509 -104.9492 -104.7073 -104.7574 -105.1051 -105.6200 -106.1033 -106.3948 -106.4537 -106.3669 -106.2795 -106.2934 -106.3946 -106.4560 -106.3146 -105.8768 -105.1871 -104.4177 -103.7820 -103.4210 -103.3279 -103.3533 -103.3174 -103.1576 -102.6960 -102.0167 -101.2685 -100.5808 -100.0145 -99.5776 -99.2889 -99.2379 -99.5878 -100.5040 -102.0395 -104.0458 -106.1726 -107.9753 -109.0886 -109.3798 -109.0000 -108.2984 -107.6398 -107.2202 -106.9812 -106.6760 -106.0579 -105.0897 -104.0530 -103.4796 -103.9205 -105.6557 -108.4982 -111.8061 -114.7188 -116.5145 -116.9112 -116.1525 -114.8302 -113.5438 -112.5962 -111.9116 -111.2249 -110.4134 -109.7276 -109.7249 -110.9048 -113.2660 -116.1104 -118.2899 -118.8047 -117.3958 -114.7300 -112.0280 -110.3616 -110.0970 -110.8575 -111.9941 -113.1567 -114.4845 -116.2568 -118.3292 -119.9030 -119.9287 -117.8908 -114.3425 -110.6971 -108.3825 -108.0027 -109.1538 -110.9693 -112.8355 -114.6113 -116.2264 -117.1999 -116.7399 -114.4820 -111.1777 -108.5297 -108.1110 -110.2209 -113.6988 -116.8843 -118.8392 -119.7178 -122.0506 -121.6650 -119.8756 -116.5132 -112.6050 -110.0233 -110.1021 -112.5228 -115.6007 -117.7082 -118.4159 -118.2943 -117.8229
-106.0719 -107.3595 -108.9546 -110.5357 -110.9780 -109.3691 -106.1856 -103.2659 -102.4502 -104.1486 -107.1704 -109.8589 -111.3378 -109.8570 -109.9003 -109.2370 -107.2830 -103.9730 -100.2949 -97.8033 -97.4815 -98.9998 -101.0465 -102.3959 -102.7318 -102.5533 -102.3934 -102.1891 -101.4100 -99.7652 -97.7470 -96.4366 -96.7006 -98.4711 -100.7318 -102.2229 -102.2881 -101.2104 -99.8407 -98.8916 -98.4819 -98.2387 -97.7857 -97.1577 -96.7975 -97.1696 -98.3323 -99.8234 -100.9481 -101.2458 -100.7918 -100.1307 -99.9111 -100.4857 -101.7381 -103.2164 -104.4469 -105.2026 -105.5644 -105.7718 -105.9945 -106.1897 -106.1333 -105.5903 -104.5049 -103.0912 -101.7718 -101.0049 -101.0956 -102.0816 -103.7385 -105.6824 -107.5123 -108.9282 -109.7899 -110.1096 -110.0035 -109.6262 -109.1133 -108.5443 -107.9308 -107.2319 -106.3918 -105.3901 -104.2840 -103.2230 -102.4222 -102.0982 -102.3903 -103.3002 -104.6793 -106.2723 -107.7995 -109.0426 -109.8979 -110.3760 -110.5558 -110.5217 -110.3176 -109.9118 -109.3324 -108.6014 -107.7714 -106.9357 -106.1887 -105.5806 -105.0919 -104.6472 -104.1603 -103.5869 -102.9547 -102.3534 -101.8911 -101.6402 -101.6305 -101.7640 -101.9736 -102.2034 -102.4560 -102.7862 -103.2612 -103.9105 -104.6954 -105.5170 -106.2400 -106.8275 -107.2372 -107.5210 -107.7555 -107.9909 -108.2190 -108.3794 -108.3992 -108.2440 -107.9480 -107.6065 -107.3336 -107.2083 -107.2397 -107.3715 -107.5207 -107.6287 -107.6946 -107.7703 -107.9220 -108.1802 -108.5088 -108.8122 -108.9779 -108.9308 -108.6689 -108.2597 -107.8000 -107.3624 -106.9570 -106.5306 -106.0015 -105.3074 -104.4842 -103.6391 -102.7303 -101.7936 -100.8242 -99.7928 -98.6930 -97.5926 -96.6557 -96.1141 -96.1929 -97.0206 -98.5632 -100.6156 -102.8558 -104.9400 -106.6011 -107.7114 -108.2890 -108.4529 -108.3512 -108.0934 -107.7147 -107.1823 -106.4416 -105.4806 -104.3901 -103.3898 -102.7994 -102.9518 -104.0679 -106.1380 -108.8679 -111.7309 -114.1259 -115.5869 -115.9494 -115.3896 -114.3101 -113.1309 -112.1057 -111.2748 -110.5785 -110.0457 -109.9023 -110.4853 -111.9860 -114.1854 -116.4000 -117.7373 -117.5557 -115.8492 -113.2881 -110.8599 -109.3347 -108.9164 -109.3147 -110.1495 -111.3307 -113.0654 -115.4651 -118.0989 -119.9529 -119.9613 -117.7784 -114.1839 -110.7295 -108.8200 -108.9016 -110.3679 -112.2060 -113.7864 -115.1046 -116.3294 -117.1976 -116.9683 -115.0940 -111.9995 -109.1373 -108.1046 -109.5089 -112.5765 -115.8462 -118.2806 -119.7578 -120.5781 -122.6646 -121.2932 -118.1197 -114.1114 -111.1801 -110.8579 -113.0496 -116.0986 -118.1582 -118.5606 -117.9155 -117.0412 -116.0492
-104.4176 -105.6167 -106.9109 -108.5482 -110.0670 -110.3290 -108.6255 -105.6613 -103.2591 -102.9570 -104.8200 -107.5567 -109.7124 -108.8451 -109.3772 -109.5293 -108.9088 -106.8734 -103.4361 -99.6976 -97.2506 -97.0291 -98.6355 -100.7305 -102.0950 -102.4128 -102.1651 -101.8848 -101.5601 -100.7429 -99.1881 -97.3454 -96.1856 -96.4790 -98.1484 -100.2593 -101.6592 -101.7485 -100.7898 -99.5698 -98.7458 -98.4139 -98.1992 -97.7207 -97.0065 -96.5171 -96.7756 -97.9196 -99.5317 -100.8798 -101.3892 -101.0103 -100.2376 -99.7870 -100.1606 -101.3787 -103.0239 -104.5318 -105.5199 -105.9542 -106.0781 -106.1833 -106.3877 -106.5578 -106.4099 -105.7150 -104.4785 -102.9914 -101.7302 -101.1602 -101.5454 -102.8500 -104.7663 -106.8442 -108.6548 -109.9206 -110.5661 -110.6869 -110.4654 -110.0755 -109.6175 -109.0989 -108.4614 -107.6327 -106.5798 -105.3423 -104.0369 -102.8333 -101.9133 -101.4261 -101.4545 -101.9989 -102.9815 -104.2674 -105.6944 -107.1031 -108.3607 -109.3746 -110.0948 -110.5091 -110.6339 -110.5038 -110.1661 -109.6993 -109.1472 -108.5478 -107.9321 -107.3226 -106.7343 -106.1773 -105.6602 -105.1937 -104.7917 -104.4717 -104.2515 -104.1459 -104.1857 -104.3350 -104.6038 -104.9814 -105.4546 -106.0083 -106.6074 -107.2697 -107.9449 -108.6028 -109.2131 -109.7496 -110.1931 -110.5330 -110.7672 -110.8996 -110.9386 -110.8951 -110.7825 -110.6174 -110.4199 -110.2123 -110.0172 -109.8535 -109.7333 -109.6608 -109.6319 -109.6374 -109.6649 -109.7016 -109.7347 -109.7505 -109.7339 -109.6670 -109.5299 -109.3014 -108.9609 -108.4882 -107.8634 -107.1580 -106.2996 -105.2512 -104.0032 -102.5678 -100.9894 -99.3516 -97.7773 -96.4192 -95.4403 -94.9874 -95.1609 -95.9887 -97.4093 -99.2727 -101.3591 -103.4169 -105.2118 -106.5751 -107.4358 -107.8263 -107.8545 -107.6517 -107.3148 -106.8675 -106.2630 -105.4331 -104.3678 -103.1878 -102.1687 -101.6856 -102.0853 -103.5299 -105.8820 -108.6984 -111.3560 -113.2701 -114.1141 -113.9327 -113.0885 -112.0638 -111.2252 -110.6830 -110.3291 -110.0262 -109.8144 -109.9756 -110.8787 -112.6776 -115.0623 -117.2659 -118.3825 -117.8431 -115.7603 -112.9035 -110.2973 -108.6931 -108.2602 -108.6892 -109.5942 -110.8651 -112.6619 -115.0480 -117.5933 -119.3586 -119.3898 -117.4086 -114.1551 -111.0469 -109.3470 -109.4466 -110.7994 -112.5108 -114.0380 -115.3844 -116.6671 -117.5633 -117.2906 -115.2716 -111.9077 -108.6651 -107.2270 -108.3406 -111.3350 -114.7261 -117.3411 -118.9395 -119.8459 -120.1344 -121.3523 -118.9916 -115.5737 -112.7693 -112.1561 -113.9397 -116.7577 -118.8166 -119.2869 -118.6369 -117.7226 -116.7663 -115.3979
-102.8655 -103.9109 -104.9951 -106.3285 -108.1182 -109.7327 -109.9745 -108.2625 -105.4484 -103.3205 -103.2021 -104.9659 -107.3369 -107.1995 -108.3312 -108.9814 -109.2251 -108.5454 -106.3205 -102.7041 -98.9275 -96.6005 -96.5695 -98.3298 -100.4868 -101.8233 -102.0500 -101.6806 -101.2935 -100.9384 -100.2122 -98.8512 -97.2123 -96.1520 -96.3873 -97.8938 -99.8607 -101.2417 -101.4552 -100.6929 -99.6450 -98.9146 -98.6064 -98.3816 -97.8770 -97.1080 -96.5227 -96.6707 -97.7563 -99.4240 -100.9403 -101.6457 -101.3662 -100.5141 -99.8278 -99.9322 -100.9970 -102.6871 -104.4000 -105.6211 -106.1769 -106.2564 -106.2194 -106.3324 -106.5956 -106.7540 -106.4710 -105.5552 -104.1112 -102.5348 -101.3609 -101.0423 -101.7672 -103.3937 -105.5205 -107.6511 -109.3718 -110.4710 -110.9600 -111.0037 -110.8072 -110.5140 -110.1579 -109.6791 -108.9851 -108.0184 -106.8000 -105.4300 -104.0553 -102.8239 -101.8510 -101.2083 -100.9345 -101.0508 -101.5677 -102.4745 -103.7192 -105.1946 -106.7426 -108.1851 -109.3684 -110.2041 -110.6866 -110.8781 -110.8701 -110.7375 -110.5134 -110.2576 -109.8777 -109.3581 -108.7305 -108.0734 -107.4863 -107.0495 -106.7941 -106.6960 -106.6980 -106.7474 -106.8291 -106.9756 -107.2478 -107.6985 -108.3370 -109.1142 -109.9383 -110.7106 -111.3655 -111.8913 -112.3239 -112.7148 -113.0939 -113.4458 -113.7143 -113.8311 -113.7552 -113.4993 -113.1302 -112.7418 -112.4140 -112.1799 -112.0180 -111.8722 -111.6893 -111.4521 -111.1904 -110.9630 -110.8212 -110.7726 -110.7647 -110.6986 -110.4646 -110.0273 -109.3458 -108.4409 -107.3570 -106.1283 -104.7609 -103.2408 -101.5664 -99.7878 -98.0298 -96.4832 -95.3617 -94.8416 -95.0067 -95.8227 -97.1484 -98.7785 -100.4983 -102.1292 -103.5524 -104.7082 -105.5809 -106.1798 -106.5246 -106.6366 -106.5323 -106.2176 -105.6880 -104.9396 -103.9979 -102.9543 -101.9936 -101.3840 -101.4150 -102.2921 -104.0255 -106.3702 -108.8610 -110.9503 -112.2012 -112.4515 -111.8673 -110.8506 -109.8453 -109.1435 -108.8004 -108.7060 -108.7618 -109.0376 -109.7802 -111.2419 -113.4209 -115.8964 -117.9067 -118.6761 -117.8219 -115.5915 -112.7624 -110.2489 -108.6611 -108.1015 -108.3148 -109.0438 -110.2781 -112.1693 -114.6709 -117.2292 -118.8674 -118.7133 -116.6328 -113.4709 -110.6445 -109.3206 -109.7677 -111.3550 -113.1650 -114.6779 -115.9448 -117.1457 -118.0208 -117.8140 -115.8955 -112.5400 -109.0889 -107.2079 -107.7755 -110.3271 -113.5211 -116.1798 -117.9538 -119.0733 -119.5975 -119.0854 -119.1381 -116.0875 -113.3627 -112.6273 -114.3271 -117.2785 -119.6239 -120.2808 -119.5354 -118.3281 -117.1403 -115.7411 -114.0001
-101.8482 -102.2648 -103.1816 -104.2591 -105.8314 -107.9561 -109.7599 -109.9630 -108.1128 -105.2281 -103.1181 -102.9810 -104.5780 -104.7974 -106.6786 -107.8910 -108.6268 -108.8470 -107.9943 -105.5394 -101.7915 -98.0726 -95.9518 -96.1482 -98.0422 -100.2012 -101.4410 -101.5326 -101.0484 -100.6193 -100.3355 -99.7958 -98.6750 -97.2197 -96.1918 -96.3011 -97.6206 -99.4812 -100.9261 -101.3523 -100.8426 -99.9738 -99.3077 -98.9893 -98.7483 -98.2522 -97.4893 -96.8620 -96.9144 -97.9090 -99.5751 -101.2195 -102.1324 -102.0169 -101.1668 -100.2882 -100.0893 -100.8940 -102.4972 -104.3239 -105.7689 -106.5098 -106.6235 -106.4662 -106.4127 -106.6174 -106.9275 -106.9872 -106.4601 -105.2457 -103.5749 -101.9399 -100.8978 -100.8447 -101.8630 -103.7044 -105.9038 -107.9646 -109.5297 -110.4704 -110.8694 -110.9214 -110.8110 -110.6244 -110.3317 -109.8343 -109.0437 -107.9463 -106.6226 -105.2167 -103.8771 -102.7059 -101.7418 -100.9831 -100.4332 -100.1372 -100.1845 -100.6722 -101.6461 -103.0531 -104.7318 -106.4526 -107.9907 -109.1998 -110.0509 -110.6195 -111.0275 -111.3710 -111.6703 -111.8663 -111.8638 -111.5979 -111.1594 -110.5938 -110.0542 -109.6927 -109.5864 -109.7110 -109.9638 -110.2258 -110.4271 -110.5855 -110.7942 -111.1687 -111.7780 -112.5984 -113.5135 -114.3610 -115.0033 -115.3861 -115.5544 -115.6193 -115.6926 -115.8241 -115.9743 -116.0363 -115.8953 -115.4952 -114.8757 -114.1611 -113.5049 -113.0185 -112.7201 -112.5298 -112.3121 -111.9398 -111.3473 -110.6097 -109.8218 -109.0726 -108.3849 -107.6908 -106.8577 -105.7539 -104.3208 -102.6174 -100.8127 -99.1313 -97.7760 -96.8666 -96.4189 -96.3716 -96.6394 -97.1624 -97.9235 -98.9252 -100.1439 -101.4911 -102.8102 -103.9177 -104.6717 -105.0325 -105.0812 -104.9795 -104.8859 -104.8701 -104.8701 -104.7231 -104.2631 -103.4426 -102.4158 -101.5330 -101.2313 -101.8568 -103.4939 -105.8826 -108.4748 -110.6205 -111.8110 -111.8739 -111.0271 -109.7619 -108.6082 -107.8979 -107.6520 -107.6520 -107.6569 -107.6339 -107.8504 -108.7434 -110.6178 -113.3474 -116.2793 -118.4467 -119.0123 -117.7040 -114.9849 -111.8358 -109.2675 -107.8556 -107.5795 -108.0403 -108.8689 -109.9963 -111.5749 -113.6226 -115.7133 -117.0306 -116.8293 -114.9928 -112.2455 -109.8015 -108.6632 -109.0780 -110.5520 -112.3675 -114.1299 -115.8598 -117.5767 -118.8336 -118.7604 -116.7219 -113.0710 -109.2662 -107.0951 -107.5290 -110.1223 -113.4468 -116.1668 -117.8158 -118.6627 -118.9648 -118.4944 -116.8934 -116.4717 -114.3222 -113.8033 -115.4422 -118.2772 -120.6012 -121.3210 -120.6503 -119.5351 -118.5240 -117.3484 -115.6466 -113.9235
-101.9791 -101.0272 -101.4396 -102.3751 -103.6970 -105.7151 -108.2304 -110.1188 -110.0813 -107.8696 -104.7228 -102.5077 -102.3224 -101.9495 -104.2860 -106.2343 -107.4837 -108.1894 -108.2713 -107.2053 -104.5782 -100.8140 -97.2530 -95.3696 -95.7483 -97.6881 -99.7653 -100.8636 -100.8275 -100.2811 -99.8863 -99.7443 -99.4286 -98.5384 -97.2175 -96.1598 -96.1007 -97.2323 -99.0271 -100.5976 -101.2903 -101.0570 -100.3574 -99.7263 -99.3752 -99.1256 -98.6826 -97.9923 -97.3800 -97.3545 -98.2283 -99.8375 -101.5732 -102.7151 -102.8524 -102.1274 -101.1541 -100.6723 -101.1469 -102.5430 -104.3836 -106.0346 -107.0398 -107.3207 -107.1514 -106.9474 -107.0009 -107.3128 -107.6008 -107.4706 -106.6479 -105.1528 -103.3291 -101.7199 -100.8531 -101.0355 -102.2452 -104.1609 -106.3027 -108.2162 -109.6178 -110.4480 -110.8243 -110.9310 -110.9059 -110.7775 -110.4739 -109.8892 -108.9642 -107.7365 -106.3363 -104.9318 -103.6580 -102.5672 -101.6298 -100.7812 -99.9910 -99.3129 -98.8863 -98.8847 -99.4340 -100.5414 -102.0714 -103.7842 -105.4207 -106.7949 -107.8521 -108.6655 -109.3752 -110.1012 -110.8740 -111.6173 -112.1897 -112.4649 -112.4075 -112.1066 -111.7479 -111.5377 -111.6159 -112.0005 -112.6093 -113.2429 -113.7625 -114.1249 -114.4007 -114.7338 -115.2602 -116.0294 -116.9677 -117.9018 -118.6325 -119.0227 -119.0550 -118.8322 -118.5206 -118.2632 -118.1079 -117.9859 -117.7042 -117.1577 -116.2842 -115.1398 -113.8800 -112.6882 -111.6890 -110.8885 -110.1731 -109.3665 -108.3173 -106.9758 -105.4212 -103.8274 -102.3864 -101.2260 -100.3645 -99.7234 -99.1891 -98.6918 -98.2571 -98.0030 -98.0808 -98.5876 -99.4959 -100.6367 -101.7498 -102.5806 -102.9801 -102.9628 -102.6934 -102.4079 -102.3043 -102.4512 -102.7571 -103.0121 -102.9859 -102.5390 -101.7001 -100.6778 -99.8030 -99.4228 -99.7859 -100.9593 -102.8012 -104.9974 -107.1480 -108.8757 -109.9244 -110.2184 -109.8620 -109.0816 -108.1322 -107.2063 -106.3909 -105.6952 -105.1378 -104.8399 -105.0549 -106.0870 -108.1125 -110.9918 -114.1914 -116.9053 -118.3575 -118.1520 -116.4789 -114.0383 -111.7016 -110.0942 -109.3500 -109.1911 -109.2690 -109.5122 -110.2029 -111.6946 -113.9646 -116.3619 -117.8173 -117.4506 -115.1877 -111.9311 -109.1125 -107.8986 -108.5912 -110.6226 -113.0919 -115.3725 -117.2999 -118.8546 -119.7342 -119.3289 -117.2289 -113.8343 -110.4398 -108.5594 -108.9478 -111.1148 -113.7623 -115.7759 -116.9059 -117.5707 -118.0673 -118.0563 -116.9147 -114.6311 -114.2817 -113.2852 -114.4031 -117.0896 -119.8016 -121.2422 -121.2266 -120.4077 -119.3035 -117.7835 -115.6022 -113.3100 -112.3283
-103.6451 -100.8105 -100.0326 -100.6106 -101.8204 -103.5914 -106.0894 -108.8401 -110.5551 -110.0344 -107.3090 -103.8508 -101.5568 -99.5247 -101.4137 -103.8749 -105.8297 -107.0065 -107.5772 -107.4819 -106.2591 -103.5831 -99.9218 -96.5667 -94.8759 -95.3309 -97.2088 -99.1441 -100.1052 -99.9944 -99.4549 -99.1485 -99.1684 -99.0593 -98.3548 -97.1144 -95.9840 -95.7372 -96.6867 -98.4373 -100.1559 -101.1255 -101.1599 -100.6032 -99.9740 -99.5660 -99.3071 -98.9461 -98.3762 -97.8200 -97.7234 -98.4358 -99.9163 -101.6815 -103.0459 -103.5069 -103.0344 -102.0935 -101.3904 -101.4977 -102.5692 -104.2921 -106.0817 -107.3936 -107.9803 -107.9657 -107.7195 -107.6166 -107.8203 -108.1966 -108.3968 -108.0535 -106.9895 -105.3339 -103.4962 -102.0145 -101.3489 -101.7137 -103.0141 -104.9050 -106.9370 -108.7199 -110.0355 -110.8623 -111.3145 -111.5383 -111.6189 -111.5415 -111.2179 -110.5570 -109.5366 -108.2377 -106.8227 -105.4696 -104.2978 -103.3228 -102.4663 -101.6154 -100.7025 -99.7648 -98.9509 -98.4692 -98.4990 -99.1071 -100.2085 -101.5918 -102.9993 -104.2247 -105.1857 -105.9377 -106.6246 -107.3916 -108.3028 -109.3032 -110.2425 -110.9506 -111.3249 -111.3895 -111.2943 -111.2548 -111.4598 -111.9905 -112.7889 -113.6900 -114.5023 -115.0981 -115.4693 -115.7237 -116.0234 -116.4953 -117.1578 -117.8990 -118.5184 -118.8120 -118.6614 -118.0839 -117.2204 -116.2665 -115.3813 -114.6144 -113.8898 -113.0502 -111.9430 -110.5047 -108.8038 -107.0208 -105.3754 -104.0354 -103.0506 -102.3439 -101.7635 -101.1695 -100.5150 -99.8787 -99.4346 -99.3708 -99.7941 -100.6681 -101.8111 -102.9580 -103.8586 -104.3671 -104.4841 -104.3358 -104.1008 -103.9229 -103.8496 -103.8225 -103.7214 -103.4343 -102.9184 -102.2223 -101.4605 -100.7609 -100.2144 -99.8579 -99.6986 -99.7608 -100.1229 -100.9108 -102.2376 -104.1141 -106.3748 -108.6686 -110.5382 -111.5675 -111.5384 -110.5233 -108.8649 -107.0446 -105.4994 -104.4748 -103.9893 -103.9214 -104.1653 -104.7512 -105.8468 -107.6221 -110.0538 -112.7972 -115.2318 -116.6886 -116.7535 -115.4759 -113.3530 -111.0916 -109.2865 -108.2116 -107.8397 -108.0447 -108.7998 -110.1875 -112.1921 -114.4443 -116.1770 -116.5298 -115.0686 -112.1727 -108.9657 -106.7600 -106.3457 -107.6072 -109.7351 -111.8623 -113.6177 -115.1647 -116.7285 -118.0721 -118.4548 -117.1913 -114.3677 -111.0604 -108.7737 -108.4867 -110.0644 -112.5045 -114.7646 -116.4162 -117.5726 -118.2815 -118.1219 -116.5471 -113.7033 -110.8488 -111.7555 -113.2734 -116.7059 -120.2944 -122.3878 -122.5227 -121.3708 -119.7808 -118.0176 -115.9848 -114.0449 -113.3105 -114.8266
-106.6155 -102.1103 -99.5455 -99.1416 -100.1150 -101.7660 -103.9943 -106.7970 -109.5014 -110.7844 -109.6434 -106.4036 -102.7147 -98.5679 -98.9034 -101.0243 -103.5248 -105.3788 -106.3946 -106.8015 -106.5826 -105.3226 -102.7275 -99.2426 -96.0732 -94.4758 -94.8853 -96.6185 -98.4013 -99.2777 -99.1700 -98.6983 -98.4991 -98.6564 -98.7033 -98.1318 -96.9357 -95.7184 -95.2856 -96.0578 -97.7611 -99.6129 -100.8352 -101.1084 -100.6637 -100.0048 -99.5117 -99.2276 -98.9520 -98.5237 -98.0461 -97.8750 -98.3769 -99.6370 -101.3309 -102.8580 -103.6611 -103.5374 -102.7568 -101.9216 -101.6533 -102.2836 -103.7105 -105.4814 -107.0397 -107.9961 -108.2862 -108.1485 -107.9536 -107.9853 -108.2878 -108.6489 -108.7187 -108.1978 -107.0019 -105.3277 -103.5935 -102.2875 -101.7897 -102.2443 -103.5283 -105.3202 -107.2308 -108.9367 -110.2641 -111.1966 -111.8173 -112.2221 -112.4506 -112.4641 -112.1782 -111.5264 -110.5189 -109.2632 -107.9361 -106.7167 -105.7158 -104.9340 -104.2718 -103.5878 -102.7783 -101.8415 -100.8949 -100.1355 -99.7604 -99.8816 -100.4749 -101.3850 -102.3868 -103.2743 -103.9397 -104.4053 -104.7981 -105.2773 -105.9505 -106.8168 -107.7635 -108.6175 -109.2273 -109.5368 -109.6170 -109.6393 -109.8022 -110.2444 -110.9832 -111.9070 -112.8243 -113.5463 -113.9673 -114.1033 -114.0750 -114.0402 -114.1106 -114.2894 -114.4612 -114.4377 -114.0402 -113.1805 -111.9038 -110.3737 -108.8060 -107.3823 -106.1817 -105.1623 -104.2000 -103.1659 -102.0065 -100.7881 -99.6838 -98.9093 -98.6338 -98.9077 -99.6384 -100.6249 -101.6356 -102.4933 -103.1306 -103.5913 -103.9799 -104.3867 -104.8230 -105.2020 -105.3725 -105.1916 -104.5999 -103.6629 -102.5554 -101.4934 -100.6432 -100.0501 -99.6239 -99.1903 -98.5925 -97.7958 -96.9481 -96.3615 -96.4119 -97.3918 -99.3725 -102.1343 -105.2000 -107.9686 -109.9029 -110.7021 -110.3908 -109.2884 -107.8669 -106.5586 -105.5958 -104.9560 -104.4413 -103.8551 -103.1869 -102.6990 -102.8514 -104.0765 -106.5060 -109.7949 -113.1609 -115.6563 -116.5648 -115.7285 -113.6290 -111.1648 -109.2319 -108.3352 -108.4432 -109.1548 -110.0503 -110.9779 -112.0736 -113.5053 -115.1468 -116.4585 -116.7216 -115.5017 -113.0209 -110.1430 -107.9396 -107.1187 -107.7134 -109.2388 -111.1582 -113.2467 -115.5396 -117.9272 -119.8177 -120.2818 -118.6920 -115.3804 -111.7172 -109.4121 -109.4843 -111.6677 -114.7065 -117.2782 -118.7718 -119.3250 -119.2322 -118.4244 -116.6104 -113.9414 -111.4410 -110.5771 -114.1897 -117.5473 -120.8765 -122.6691 -122.5843 -121.4140 -120.1078 -118.9049 -117.4587 -115.7344 -114.5767 -115.1613 -117.7825
