ncols        257
nrows        37
xllcorner    -500
yllcorner    -355.46875
cellsize     3.906250
NODATA_value -9999
-102.7441 -102.8322 -102.8920 -102.1320 -101.4468 -102.2300 -104.0945 -105.3897 -105.6938 -106.1319 -107.1546 -107.7286 -107.2981 -105.0924 -106.2058 -107.6625 -108.0182 -107.6089 -107.8683 -108.9603 -109.7655 -110.0740 -111.0143 -112.9139 -114.3928 -114.4387 -114.0217 -114.5033 -115.5257 -115.8809 -115.6905 -116.0523 -116.8525 -116.7156 -115.3392 -114.2056 -114.3467 -114.8712 -114.6515 -114.1849 -114.4781 -115.0648 -114.6885 -113.5676 -113.3629 -114.4266 -115.3469 -115.2285 -114.9275 -115.2720 -116.3223 -116.0242 -115.6061 -116.3414 -117.7633 -118.1737 -117.1714 -116.0241 -115.4200 -114.5458 -112.9654 -111.8114 -111.5426 -112.3703 -112.0352 -110.8734 -110.3511 -110.6698 -110.6909 -110.1375 -110.0966 -110.9185 -111.2679 -110.1555 -108.5719 -107.9175 -107.8571 -107.1508 -105.8706 -105.1194 -104.8454 -103.7259 -101.4671 -99.5479 -99.0052 -98.9288 -98.1332 -97.0726 -96.7769 -96.8350 -96.0736 -94.7759 -94.4741 -95.5002 -96.4102 -96.2644 -95.9146 -96.2434 -96.5600 -95.9614 -95.1834 -95.5446 -96.6807 -96.9888 -96.1236 -95.3857 -95.4628 -95.4634 -94.8018 -94.4772 -95.3836 -96.5729 -96.6070 -95.8281 -95.7365 -96.5698 -97.1707 -97.1969 -97.6978 -99.0524 -99.9736 -99.4944 -98.6177 -98.7710 -99.6304 -99.9149 -99.6395 -99.9058 -100.7163 -100.7899 -99.8262 -99.2824 -100.1843 -101.5915 -102.2551 -102.5833 -103.6265 -105.0253 -105.6148 -105.6349 -106.5770 -108.7561 -110.7054 -111.4528 -111.8562 -112.8608 -113.8322 -113.8595 -113.6312 -114.4449 -115.9491 -116.5487 -115.9021 -115.3472 -115.6338 -115.8909 -115.4844 -115.3554 -116.3908 -117.6696 -117.7684 -117.0360 -117.0027 -117.9362 -118.6565 -118.7537 -119.2411 -120.5278 -121.3765 -120.8393 -119.9228 -120.0712 -120.9630 -121.2719 -120.9554 -121.1139 -121.8048 -121.7869 -120.7482 -120.1183 -120.9087 -122.1529 -122.5475 -122.4664 -122.9919 -123.8256 -123.8189 -123.1751 -123.3527 -124.6630 -125.6342 -125.2805 -124.4818 -124.2563 -124.0338 -122.8995 -121.4986 -121.1137 -121.4145 -120.8234 -119.0079 -117.3426 -116.6346 -116.0268 -114.8316 -113.9290 -114.1995 -114.7520 -114.1785 -112.8316 -112.2642 -112.7669 -113.1327 -112.8840 -113.0007 -113.7660 -114.0015 -112.8657 -111.3692 -110.9713 -111.3549 -111.1543 -110.2787 -109.8375 -109.9516 -109.4260 -107.9398 -106.8963 -107.2966 -108.1572 -108.1339 -107.5798 -107.6197 -108.0242 -107.6649 -106.7097 -106.5862 -107.6067 -108.3021 -107.6794 -106.6415 -106.2749 -106.0635 -105.0761 -105.9010 -105.6255 -105.8253 -104.9981 -102.9061 -101.0571 -100.4074 -100.1884 -99.7028 -99.7751 -101.2435 -103.1719 -104.0598
-102.2760 -102.3525 -102.4478 -101.7542 -101.1010 -101.8877 -103.8348 -105.3196 -105.7846 -106.2690 -107.3354 -108.0345 -107.6559 -105.2820 -106.1920 -107.6995 -108.2757 -107.8997 -107.9489 -108.9065 -109.7693 -110.0309 -110.6917 -112.4738 -114.3149 -114.8470 -114.5006 -114.7495 -115.7725 -116.4032 -116.2901 -116.4706 -117.3856 -117.8465 -116.8836 -115.4336 -114.9840 -115.3722 -115.3295 -114.7165 -114.6200 -115.2512 -115.3980 -114.3126 -113.2852 -113.5996 -114.6016 -114.9054 -114.5725 -114.6956 -115.8894 -116.0635 -115.3578 -115.1002 -116.0532 -117.0640 -116.7830 -115.6323 -114.8436 -114.3529 -113.1720 -111.4916 -110.3590 -111.0935 -111.6832 -111.0688 -110.0564 -109.8242 -110.0042 -109.5541 -108.7828 -108.9150 -109.8705 -110.1054 -108.9361 -107.5383 -106.9960 -106.6894 -105.6334 -104.3204 -103.8354 -103.7901 -102.7414 -100.5400 -98.6876 -98.0614 -97.7538 -96.8431 -95.9685 -96.0392 -96.4095 -95.8006 -94.5001 -94.0713 -94.9452 -95.8452 -95.9170 -95.9344 -96.6435 -97.2409 -96.7055 -95.7142 -95.7593 -96.8091 -97.3853 -96.9112 -96.4274 -96.6151 -96.6284 -95.7477 -94.9265 -95.4243 -96.7246 -97.2647 -96.8235 -96.6522 -97.2628 -97.6874 -97.3885 -97.3980 -98.6014 -100.0554 -100.2950 -99.5593 -99.2816 -99.7686 -99.9579 -99.5133 -99.5276 -100.5733 -101.4929 -101.1460 -100.2795 -100.3904 -101.4630 -102.2921 -102.6827 -103.6946 -105.5644 -107.0001 -107.2120 -107.2956 -108.5626 -110.5324 -111.8557 -112.5083 -113.5465 -114.9820 -115.5698 -114.9677 -114.5523 -115.3657 -116.5340 -116.7559 -116.3361 -116.4161 -116.8781 -116.6062 -115.6452 -115.4452 -116.6073 -117.8652 -118.0446 -117.7713 -118.1774 -118.9359 -118.9877 -118.6102 -119.1327 -120.6618 -121.6907 -121.3661 -120.7078 -120.8281 -121.2143 -120.9069 -120.3974 -120.8680 -122.0393 -122.3920 -121.5426 -120.8538 -121.2716 -121.9968 -122.0981 -122.1684 -123.1507 -124.4183 -124.5476 -123.6130 -123.1414 -123.7351 -124.2706 -123.8938 -123.3445 -123.4153 -123.3286 -121.9584 -119.8780 -118.6790 -118.5741 -118.2181 -116.9743 -115.8016 -115.3888 -114.8792 -113.4438 -111.9737 -111.8596 -112.7812 -113.1918 -112.7053 -112.4464 -112.9319 -113.1465 -112.3504 -111.7054 -112.2735 -113.2723 -113.1809 -112.0477 -111.2248 -111.0907 -110.6408 -109.5222 -108.8699 -109.3994 -110.0111 -109.4031 -108.1015 -107.5600 -107.8737 -107.9000 -107.4170 -107.5074 -108.4983 -109.0814 -108.2822 -107.0496 -106.7773 -107.1875 -107.0301 -106.2686 -105.9887 -108.2756 -107.6790 -105.5956 -103.4167 -102.4487 -102.1348 -101.3114 -100.2770 -100.1864 -100.9378 -101.2932 -101.0747 -101.6239
-101.8279 -101.8230 -101.8935 -101.3126 -100.7719 -101.5279 -103.4215 -105.0255 -105.7163 -106.3251 -107.4323 -108.2674 -108.0662 -105.6530 -106.3146 -107.7134 -108.4738 -108.2703 -108.2145 -108.9889 -109.8656 -110.1674 -110.5870 -112.0412 -113.9624 -114.9686 -114.9233 -115.0483 -115.9417 -116.7658 -116.8438 -116.8639 -117.6222 -118.4617 -118.1494 -116.8478 -115.9383 -115.9553 -115.9813 -115.3804 -114.8828 -115.2162 -115.6842 -115.1905 -113.8571 -113.2947 -113.8246 -114.3346 -114.1538 -114.0038 -114.5174 -115.6426 -115.3330 -114.5408 -114.5497 -115.3863 -115.7609 -115.0717 -114.1850 -113.8102 -113.3032 -111.4810 -110.1518 -109.8749 -110.5042 -110.6943 -109.9650 -109.2718 -109.2577 -109.1979 -108.3906 -107.5561 -107.7649 -108.6027 -108.6576 -107.6091 -106.5523 -106.1179 -105.5547 -104.2324 -102.9096 -102.5295 -102.5362 -101.6064 -99.6984 -98.0960 -97.4134 -96.8449 -95.7898 -94.9981 -95.2582 -95.8714 -95.5911 -94.5827 -94.1829 -94.8348 -95.5509 -95.6745 -95.9061 -96.8928 -97.8524 -97.6801 -96.7737 -96.5172 -97.1956 -97.7041 -97.4365 -97.1700 -97.5424 -97.8082 -97.0695 -95.9423 -95.7908 -96.6806 -97.3642 -97.2785 -97.2602 -97.9047 -98.4484 -98.1074 -97.5853 -98.1041 -99.4545 -100.2706 -100.0979 -99.8998 -100.2876 -100.5261 -99.9693 -99.4136 -99.9621 -101.2099 -101.7913 -101.4610 -101.3505 -102.0702 -102.8547 -103.1021 -103.5906 -105.2172 -107.3461 -108.6051 -108.9277 -109.5359 -110.9406 -112.2618 -112.8863 -113.5589 -115.0207 -116.5222 -116.8260 -116.1487 -115.8553 -116.3914 -116.8093 -116.5470 -116.3903 -117.0118 -117.6387 -117.2148 -116.2014 -115.9951 -116.8478 -117.6417 -117.7927 -118.0718 -119.0481 -119.8997 -119.7044 -119.0780 -119.3487 -120.5241 -121.3433 -121.2810 -121.1971 -121.6657 -121.9141 -121.2103 -120.3296 -120.5208 -121.5715 -122.1436 -121.8387 -121.6361 -122.1017 -122.4557 -122.0531 -121.6925 -122.4235 -123.7588 -124.2887 -123.7585 -123.2627 -123.3379 -123.1763 -122.2030 -121.2402 -121.1916 -121.4206 -120.6083 -118.7796 -117.2188 -116.4612 -115.6762 -114.3490 -113.3098 -113.3191 -113.6182 -112.9914 -111.6886 -111.0571 -111.4764 -111.9535 -111.9241 -111.9932 -112.8269 -113.5810 -113.1738 -112.0726 -111.6508 -112.1165 -112.3537 -111.8363 -111.3820 -111.5576 -111.5419 -110.4668 -109.0208 -108.5580 -109.0767 -109.3340 -108.8529 -108.5037 -108.8072 -108.9346 -108.1453 -107.2169 -107.3528 -108.2718 -108.6094 -107.9835 -107.3676 -107.2831 -106.9320 -107.7186 -106.3427 -105.7768 -105.6144 -104.6016 -102.6876 -101.1314 -100.5646 -100.2536 -99.6992 -99.7411 -101.1914 -103.2568
-101.4434 -101.2934 -101.2758 -100.8330 -100.4746 -101.1845 -102.9027 -104.5287 -105.4685 -106.2704 -107.4208 -108.3745 -108.4401 -106.1479 -106.6024 -107.7613 -108.5970 -108.6389 -108.6137 -109.2120 -110.0401 -110.4427 -110.7510 -111.8082 -113.5098 -114.7893 -115.1554 -115.3463 -116.0842 -116.9762 -117.3053 -117.3123 -117.7900 -118.6503 -118.8862 -118.0863 -117.0882 -116.7169 -116.6405 -116.1343 -115.4034 -115.2410 -115.6127 -115.5805 -114.6609 -113.6096 -113.4284 -113.7367 -113.6989 -113.3973 -113.5576 -114.1456 -114.8911 -114.3395 -113.7622 -113.9287 -114.3873 -114.2304 -113.5140 -113.0284 -112.4159 -111.9729 -110.7561 -109.6465 -109.4553 -109.7330 -109.5265 -108.8386 -108.4509 -108.4969 -108.2112 -107.2810 -106.5199 -106.6605 -107.1743 -107.0339 -106.2067 -105.5092 -105.1563 -104.4417 -103.0534 -101.7757 -101.3263 -101.1855 -100.3528 -98.8548 -97.6137 -96.9616 -96.2533 -95.1534 -94.3791 -94.5921 -95.2382 -95.2923 -94.7705 -94.6093 -95.1501 -95.6993 -95.8055 -96.0592 -97.0453 -98.1923 -98.4905 -97.9958 -97.7100 -98.0379 -98.3007 -98.0105 -97.7270 -98.0651 -98.5358 -98.2208 -97.2533 -96.6975 -96.9877 -97.4094 -97.3844 -97.3911 -98.0243 -98.8220 -98.8895 -98.3573 -98.2694 -99.0216 -99.8273 -100.0201 -100.0342 -100.5047 -101.0649 -100.9054 -100.2044 -100.0291 -100.7813 -101.6544 -101.9487 -102.1020 -102.8143 -103.8038 -104.2986 -104.4454 -105.2410 -107.0038 -108.8331 -109.9404 -110.7218 -111.9014 -113.2420 -113.9730 -114.1895 -114.8271 -116.1688 -117.3049 -117.4671 -117.1235 -117.1234 -117.3540 -117.1055 -116.4655 -116.3467 -117.0314 -117.6269 -117.3893 -116.8293 -116.8542 -117.3774 -117.6365 -117.6024 -118.0738 -119.2682 -120.2683 -120.3259 -119.9697 -120.1438 -120.7784 -121.0710 -120.9193 -121.0834 -121.8123 -122.2656 -121.7769 -120.9508 -120.7972 -121.2704 -121.5254 -121.3810 -121.5501 -122.2961 -122.8181 -122.4693 -121.8454 -121.9273 -122.6102 -122.9499 -122.6647 -122.4304 -122.5558 -122.3210 -121.1398 -119.6409 -118.8271 -118.6021 -118.0102 -116.7684 -115.6103 -114.9632 -114.2246 -112.8660 -111.5120 -111.1307 -111.5720 -111.8081 -111.4923 -111.3447 -111.7604 -112.1089 -111.8422 -111.4914 -111.9302 -112.9365 -113.4316 -113.0550 -112.5757 -112.5495 -112.4695 -111.7740 -110.9625 -110.8883 -111.3412 -111.2738 -110.3743 -109.4885 -109.2560 -109.2023 -108.7134 -108.1898 -108.4045 -109.1105 -109.2478 -108.5058 -107.7521 -107.6531 -107.7206 -107.2676 -106.6107 -108.4939 -108.5429 -107.6663 -105.7011 -103.6969 -102.5063 -101.7765 -100.8772 -100.1378 -100.3231 -101.2542 -101.9355 -102.0619
-101.1600 -100.8144 -100.6495 -100.3474 -100.2209 -100.8865 -102.3363 -103.8763 -105.0459 -106.0883 -107.2899 -108.3244 -108.6940 -106.6769 -107.0419 -107.8992 -108.6694 -108.9468 -109.0760 -109.5587 -110.2790 -110.7880 -111.1440 -111.8927 -113.1794 -114.4263 -115.1305 -115.5483 -116.2072 -117.0551 -117.6014 -117.7759 -118.0647 -118.6795 -119.1145 -118.8539 -118.1403 -117.5994 -117.3288 -116.8887 -116.1524 -115.5926 -115.5214 -115.5359 -115.1128 -114.1960 -113.5279 -113.3789 -113.2836 -112.9691 -112.7887 -113.0608 -113.4197 -113.2862 -113.3460 -113.0789 -113.2023 -113.2494 -112.3507 -111.9431 -111.8127 -111.7221 -111.1326 -110.0965 -109.2701 -108.9859 -108.8284 -108.3524 -107.7689 -107.5145 -107.4509 -107.0411 -106.2387 -105.6388 -105.6004 -105.7070 -105.4064 -104.7999 -104.3445 -104.0087 -103.2911 -102.0842 -100.9577 -100.3517 -99.9330 -99.1341 -98.0171 -97.1112 -96.5373 -95.8665 -94.9338 -94.2480 -94.2785 -94.7275 -94.9564 -94.9058 -95.0750 -95.6440 -96.1808 -96.3913 -96.6525 -97.4169 -98.4213 -98.9905 -98.9862 -98.9243 -99.1131 -99.2126 -98.8972 -98.4948 -98.5184 -98.8276 -98.7930 -98.2455 -97.7239 -97.6502 -97.7547 -97.6389 -97.5086 -97.8518 -98.5775 -99.0428 -98.9792 -98.8699 -99.1875 -99.7047 -99.9469 -100.0023 -100.3527 -101.0089 -101.3925 -101.2103 -100.9445 -101.1677 -101.7541 -102.2070 -102.5229 -103.1764 -104.2721 -105.2827 -105.8489 -106.3733 -107.4365 -108.9369 -110.2911 -111.3364 -112.4753 -113.8673 -115.0319 -115.5548 -115.7700 -116.2938 -117.1131 -117.6534 -117.6896 -117.6395 -117.8085 -117.8602 -117.4033 -116.7424 -116.5389 -116.8726 -117.1752 -117.1273 -117.0941 -117.4448 -117.9076 -118.0289 -117.9801 -118.3627 -119.2748 -120.1163 -120.4516 -120.5758 -120.9247 -121.3286 -121.3301 -121.0229 -121.0043 -121.4654 -121.8682 -121.7443 -121.3700 -121.2761 -121.4182 -121.3425 -121.0397 -121.0478 -121.5954 -122.1612 -122.1921 -121.8729 -121.7536 -121.8608 -121.7160 -121.1851 -120.7344 -120.6484 -120.4817 -119.6733 -118.3849 -117.2490 -116.4414 -115.5450 -114.3713 -113.3581 -112.8779 -112.5923 -111.9416 -111.0299 -110.5015 -110.6020 -110.8868 -110.9506 -111.0941 -111.6810 -112.4102 -112.6732 -112.4645 -112.3940 -112.7630 -113.1512 -113.1324 -112.9317 -112.9721 -113.0848 -112.7166 -111.8356 -111.0741 -110.8412 -110.7845 -110.4217 -109.9020 -109.6857 -109.7089 -109.4369 -108.7467 -108.2022 -108.2343 -108.4982 -108.4119 -108.0039 -107.7362 -107.6458 -109.2402 -108.1670 -106.8432 -105.8339 -104.9770 -103.7935 -102.3769 -101.3386 -100.9266 -100.7545 -100.5643 -100.7454 -101.7189
-101.0056 -100.4319 -100.0724 -99.8918 -100.0195 -100.6546 -101.7816 -103.1351 -104.4783 -105.7788 -107.0434 -108.1114 -108.7666 -107.1363 -107.5744 -108.1584 -108.7400 -109.1725 -109.5320 -109.9946 -110.5746 -111.1378 -111.6587 -112.2959 -113.1510 -114.0867 -114.8988 -115.5816 -116.2837 -117.0348 -117.6807 -118.1200 -118.4560 -118.8101 -119.0925 -119.1022 -118.8127 -118.4062 -118.0096 -117.5484 -116.9372 -116.2864 -115.7823 -115.4258 -115.0500 -114.6002 -113.8692 -113.3475 -112.9902 -112.6563 -112.3641 -112.2548 -112.3288 -112.3870 -112.2860 -112.1206 -112.0485 -112.0352 -111.9098 -111.6316 -111.3362 -111.0896 -110.7537 -110.1900 -109.4905 -108.8701 -108.3811 -107.8864 -107.3176 -106.7973 -106.4354 -106.1319 -105.7156 -105.2087 -104.7985 -104.5531 -104.3187 -103.9493 -103.5020 -103.0941 -102.6663 -102.0444 -101.2123 -100.3643 -99.6414 -98.9556 -98.1672 -97.3282 -96.6108 -96.0466 -95.5024 -94.9364 -94.5224 -94.4305 -94.5949 -94.8251 -95.0817 -95.4881 -96.0762 -96.6846 -97.1801 -97.6483 -98.2401 -98.9052 -99.4291 -99.7167 -99.8849 -100.0348 -100.0771 -99.8942 -99.5723 -99.3205 -99.1879 -99.0171 -98.7078 -98.3809 -98.1964 -98.1231 -98.0271 -97.9288 -98.0051 -98.3190 -98.7005 -98.9729 -99.1805 -99.4736 -99.8463 -100.1458 -100.3305 -100.5532 -100.9254 -101.3319 -101.5965 -101.7488 -101.9821 -102.3768 -102.8243 -103.2588 -103.8106 -104.6232 -105.6200 -106.5967 -107.5072 -108.5037 -109.6741 -110.8927 -112.0093 -113.0637 -114.1767 -115.2922 -116.1923 -116.7792 -117.1922 -117.5811 -117.8918 -117.9902 -117.9129 -117.8353 -117.8071 -117.6840 -117.3764 -117.0305 -116.8553 -116.8594 -116.8997 -116.9477 -117.1413 -117.5433 -118.0015 -118.3496 -118.6434 -119.0598 -119.6136 -120.1289 -120.4978 -120.8137 -121.1724 -121.4730 -121.5498 -121.4366 -121.3429 -121.3680 -121.3900 -121.2909 -121.1539 -121.1242 -121.1658 -121.1151 -120.9511 -120.8522 -120.9362 -121.0813 -121.1018 -120.9985 -120.8968 -120.7879 -120.5013 -119.9607 -119.3156 -118.7285 -118.1407 -117.3795 -116.4355 -115.4792 -114.6046 -113.7183 -112.7524 -111.8545 -111.2368 -110.9049 -110.6865 -110.5137 -110.5026 -110.6884 -110.9743 -111.2151 -111.4552 -111.8560 -112.4176 -112.9307 -113.2419 -113.4267 -113.6130 -113.7492 -113.6870 -113.4393 -113.1887 -113.0185 -112.7877 -112.3504 -111.7852 -111.2813 -110.8705 -110.4274 -109.9234 -109.5156 -109.3148 -109.1964 -108.9635 -108.6163 -108.3182 -108.1210 -107.8850 -107.5108 -109.1013 -108.6192 -107.8827 -106.7660 -105.3424 -103.9140 -102.7310 -101.8170 -101.1359 -100.7986 -100.9532 -101.5279 -102.2458
-100.9957 -100.1833 -99.5994 -99.5037 -99.8768 -100.5000 -101.2917 -102.3819 -103.8173 -105.3599 -106.6986 -107.7556 -108.6307 -107.4306 -108.1054 -108.5280 -108.8594 -109.3299 -109.9297 -110.4744 -110.9249 -111.4558 -112.1684 -112.9085 -113.4892 -113.9807 -114.6163 -115.4502 -116.2828 -116.9562 -117.5546 -118.2048 -118.8048 -119.1234 -119.1300 -119.0432 -119.0143 -118.9229 -118.5874 -118.0564 -117.5314 -117.0537 -116.4598 -115.6827 -114.9293 -114.4424 -114.1032 -113.4955 -112.8543 -112.3509 -112.0822 -111.8974 -111.6215 -111.3314 -111.2449 -111.3813 -111.5094 -111.4588 -111.3178 -111.2263 -111.1053 -110.7592 -110.1926 -109.6393 -109.2397 -108.8535 -108.2899 -107.5991 -106.9840 -106.4841 -105.9346 -105.2639 -104.6546 -104.2996 -104.1163 -103.8574 -103.4512 -103.0557 -102.7633 -102.4289 -101.8948 -101.2532 -100.7233 -100.3196 -99.8217 -99.0975 -98.2901 -97.5939 -96.9807 -96.3012 -95.5932 -95.0962 -94.9311 -94.9339 -94.9038 -94.8919 -95.0966 -95.5415 -96.0395 -96.4906 -97.0345 -97.8059 -98.6682 -99.3476 -99.7743 -100.1210 -100.4927 -100.7565 -100.7680 -100.6257 -100.5413 -100.5184 -100.3430 -99.9118 -99.4029 -99.0327 -98.7782 -98.4855 -98.1766 -98.0586 -98.2109 -98.4412 -98.5474 -98.5962 -98.7987 -99.1812 -99.5572 -99.8298 -100.1395 -100.6199 -101.1476 -101.4901 -101.6393 -101.8254 -102.1908 -102.6233 -102.9890 -103.3852 -104.0066 -104.8353 -105.6481 -106.3451 -107.1008 -108.1030 -109.2792 -110.4190 -111.4876 -112.6342 -113.8868 -115.0257 -115.8512 -116.4470 -117.0327 -117.6307 -118.0507 -118.2006 -118.2312 -118.2907 -118.2841 -118.0278 -117.5704 -117.1804 -117.0097 -116.9373 -116.8178 -116.7357 -116.8703 -117.1926 -117.4845 -117.6633 -117.9114 -118.4023 -119.0354 -119.5786 -119.9894 -120.4189 -120.9075 -121.2664 -121.3443 -121.2691 -121.2809 -121.3993 -121.4263 -121.2685 -121.0776 -120.9997 -120.9409 -120.7242 -120.3981 -120.2046 -120.2414 -120.3259 -120.2642 -120.1081 -120.0140 -119.9426 -119.6841 -119.1758 -118.6127 -118.1649 -117.7270 -117.0810 -116.2214 -115.3489 -114.5582 -113.7208 -112.7472 -111.8105 -111.1653 -110.8232 -110.5786 -110.3819 -110.2903 -110.4282 -110.6996 -110.9252 -111.1400 -111.5505 -112.2013 -112.8641 -113.3242 -113.6346 -113.9603 -114.2743 -114.3846 -114.2458 -114.0549 -113.9654 -113.8543 -113.5049 -112.9310 -112.3530 -111.8751 -111.3704 -110.7420 -110.1378 -109.7635 -109.5749 -109.3277 -108.9197 -108.5096 -108.2446 -108.0260 -107.6761 -109.2298 -108.7170 -108.0672 -107.1311 -105.8366 -104.4129 -103.1974 -102.3049 -101.6446 -101.2191 -101.2083 -101.6886 -102.4279
-101.1321 -100.0930 -99.2770 -99.2185 -99.7971 -100.4243 -100.9072 -101.6930 -103.1302 -104.8662 -106.2841 -107.2981 -108.2988 -107.4948 -108.5264 -108.9509 -109.0549 -109.4551 -110.2442 -110.9500 -111.3270 -111.7448 -112.5786 -113.5604 -114.1196 -114.2299 -114.4798 -115.2473 -116.2033 -116.8619 -117.3070 -117.9830 -118.8932 -119.4735 -119.3764 -118.9897 -118.8935 -119.0559 -118.9547 -118.4074 -117.8295 -117.5436 -117.2308 -116.4027 -115.1950 -114.2683 -113.9366 -113.6110 -112.8510 -112.0487 -111.6630 -111.6371 -111.4196 -110.7847 -110.2068 -110.1956 -110.5714 -110.7503 -110.5849 -110.4827 -110.6555 -110.6897 -110.1311 -109.2034 -108.5464 -108.3371 -108.0944 -107.4372 -106.6345 -106.1310 -105.8109 -105.1616 -104.1017 -103.1974 -102.9011 -102.9336 -102.7221 -102.2183 -101.8683 -101.8207 -101.6254 -100.9087 -99.9910 -99.4759 -99.3986 -99.2005 -98.5562 -97.8047 -97.3604 -97.0458 -96.3906 -95.4412 -94.8165 -94.8809 -95.2582 -95.4080 -95.3901 -95.6815 -96.3663 -96.9690 -97.1960 -97.4331 -98.2034 -99.3751 -100.3086 -100.7232 -100.9908 -101.4509 -101.8328 -101.6833 -101.1335 -100.7979 -100.9172 -101.0248 -100.6404 -99.9532 -99.4875 -99.2983 -98.9439 -98.2672 -97.7582 -97.9004 -98.4655 -98.8245 -98.8184 -98.8967 -99.3552 -99.8644 -100.0106 -99.9974 -100.3959 -101.2914 -102.1146 -102.4301 -102.5109 -102.8636 -103.4585 -103.8446 -103.9499 -104.3015 -105.2883 -106.5688 -107.5339 -108.1462 -108.9154 -110.0797 -111.2566 -112.0805 -112.8160 -113.9719 -115.4807 -116.7000 -117.2631 -117.5225 -117.9476 -118.4164 -118.4735 -118.1258 -117.9189 -118.1445 -118.3826 -118.0970 -117.4111 -116.9157 -116.8218 -116.7458 -116.4234 -116.2159 -116.6014 -117.4131 -118.0058 -118.1334 -118.2384 -118.7419 -119.4212 -119.8043 -119.9396 -120.3291 -121.1113 -121.7535 -121.7580 -121.3462 -121.1061 -121.1495 -121.0449 -120.5884 -120.9779 -121.2348 -121.5917 -121.4119 -120.6288 -119.3163 -119.2036 -119.2369 -118.9757 -118.5452 -118.4287 -118.6515 -118.6287 -117.9537 -116.9614 -116.2288 -115.7669 -115.1093 -114.1185 -113.2458 -112.8368 -112.5616 -111.8759 -110.8474 -110.1647 -110.1011 -110.2370 -110.1844 -110.1515 -110.6010 -111.4584 -112.1156 -112.2680 -112.3356 -112.8325 -113.6264 -114.1832 -114.3860 -114.6595 -115.2185 -115.6226 -115.3608 -114.6059 -113.9976 -113.7653 -113.4933 -112.8436 -112.1038 -111.7216 -111.5613 -111.0587 -110.0710 -109.1401 -108.7519 -108.6904 -108.4314 -107.9444 -107.6741 -109.7525 -109.5206 -108.4401 -106.8621 -105.5088 -104.5949 -103.7378 -102.7356 -101.9886 -101.9154 -102.2787 -102.4854 -102.4322
-101.4028 -100.1706 -99.1385 -99.0661 -99.7840 -100.4212 -100.6527 -101.1352 -102.4903 -104.3452 -105.8366 -106.7937 -107.8204 -107.3101 -108.7414 -109.3357 -109.3148 -109.5848 -110.4755 -111.3782 -111.7691 -112.0373 -112.8617 -114.0931 -114.8636 -114.8145 -114.6375 -115.1197 -116.0901 -116.7904 -117.0628 -117.5463 -118.5971 -119.5932 -119.7245 -119.1341 -118.7217 -118.8881 -119.0548 -118.6250 -117.9041 -117.5926 -117.6395 -117.2246 -115.9504 -114.4873 -113.7008 -113.5283 -112.9324 -111.8760 -111.1003 -111.0543 -111.2145 -110.7666 -109.7844 -109.1540 -109.3352 -109.7674 -109.7579 -109.4857 -109.6170 -110.1434 -110.2407 -109.4144 -108.2453 -107.6105 -107.5063 -107.1797 -106.3211 -105.5119 -105.2705 -105.1732 -104.4205 -103.0405 -101.9324 -101.6550 -101.7240 -101.4139 -100.8322 -100.6579 -100.9757 -101.0095 -100.2081 -99.0818 -98.5256 -98.6001 -98.5419 -97.9431 -97.3195 -97.2378 -97.3604 -96.8920 -95.7957 -94.9565 -95.0126 -95.5487 -95.8055 -95.8112 -96.2459 -97.2821 -98.1958 -98.3790 -98.2575 -98.7221 -99.8804 -100.9457 -101.3906 -101.6305 -102.2436 -102.9502 -102.9377 -102.0781 -101.2121 -101.0365 -101.2056 -100.9400 -100.2052 -99.7028 -99.7303 -99.6718 -98.9253 -97.8900 -97.5081 -97.9983 -98.6210 -98.7909 -98.8666 -99.4680 -100.4010 -100.8555 -100.6112 -100.4400 -101.0615 -102.1636 -102.9074 -103.1411 -103.5224 -104.4116 -105.2503 -105.3964 -105.1710 -105.5188 -106.7359 -108.1152 -109.0053 -109.6972 -110.8458 -112.3497 -113.4182 -113.7522 -114.0576 -115.0802 -116.5542 -117.5966 -117.9456 -118.2111 -118.8149 -119.2651 -118.8908 -117.9392 -117.3587 -117.5361 -117.8266 -117.5475 -116.9531 -116.7655 -117.0204 -117.0015 -116.3809 -115.8365 -116.1734 -117.2096 -118.0540 -118.3525 -118.6649 -119.4615 -120.3012 -120.4580 -120.0593 -119.9938 -120.6756 -121.4645 -121.5891 -121.2006 -121.0224 -122.1660 -122.3863 -121.7894 -120.8867 -120.4853 -120.5501 -120.3279 -118.9446 -118.4334 -118.3989 -118.5018 -118.0168 -116.9956 -116.3008 -116.4066 -116.7157 -116.4005 -115.5253 -114.8183 -114.4918 -113.9208 -112.6710 -111.3068 -110.7151 -110.9495 -111.1990 -110.8384 -110.3847 -110.4788 -110.8917 -110.9111 -110.5161 -110.5346 -111.4915 -112.8287 -113.6537 -113.9181 -114.3142 -115.1023 -115.6671 -115.4749 -114.9670 -114.9988 -115.6122 -115.9532 -115.4636 -114.6017 -114.0661 -113.7335 -112.9185 -111.5476 -110.4377 -110.2032 -110.3853 -110.0972 -109.2450 -108.5459 -108.3728 -108.1901 -109.4267 -108.2760 -107.4833 -107.2202 -106.7405 -105.5159 -104.0430 -103.1458 -102.8432 -102.4717 -101.8452 -101.6568 -102.4685
-101.7835 -100.4099 -99.2008 -99.0675 -99.8403 -100.4795 -100.5358 -100.7573 -101.9679 -103.8524 -105.3969 -106.3014 -107.2717 -106.9091 -108.6925 -109.5800 -109.5858 -109.7367 -110.6392 -111.7251 -112.2232 -112.3718 -113.0584 -114.4229 -115.5173 -115.5828 -115.1194 -115.2005 -116.0224 -116.7702 -116.9333 -117.0890 -117.9836 -119.2853 -119.8943 -119.4189 -118.6974 -118.6122 -118.9130 -118.7218 -117.9202 -117.3388 -117.4680 -117.6171 -116.8150 -115.1871 -113.8187 -113.3008 -113.0504 -111.9642 -110.7046 -110.1882 -110.4931 -110.6326 -109.8755 -108.7545 -108.3046 -108.6354 -108.8865 -108.5723 -108.2933 -108.7554 -109.5647 -109.6230 -108.6080 -107.4088 -106.8875 -106.7560 -106.1603 -105.0523 -104.2921 -104.3267 -104.4192 -103.6186 -102.1014 -100.9468 -100.6695 -100.6221 -100.0853 -99.3867 -99.3796 -100.0591 -100.3976 -99.7055 -98.5717 -98.0265 -98.1398 -98.0630 -97.3935 -96.8080 -97.0204 -97.6193 -97.5464 -96.5725 -95.6449 -95.6000 -96.0999 -96.2937 -96.1718 -96.5829 -97.8884 -99.2678 -99.7568 -99.5510 -99.6953 -100.6104 -101.5797 -101.8934 -101.9142 -102.4783 -103.5243 -104.0166 -103.3361 -102.1494 -101.4967 -101.4180 -101.0815 -100.1615 -99.3919 -99.4675 -99.9310 -99.7339 -98.7074 -97.8211 -97.8566 -98.4082 -98.6224 -98.5304 -98.9804 -100.2735 -101.5471 -101.8753 -101.5282 -101.5735 -102.3986 -103.2807 -103.5756 -103.7250 -104.5773 -106.0340 -107.0586 -107.0941 -106.8558 -107.3505 -108.5378 -109.5466 -110.0648 -110.8145 -112.4042 -114.2728 -115.3349 -115.4412 -115.5524 -116.3757 -117.4360 -117.8882 -117.8213 -118.1045 -119.0065 -119.6573 -119.2035 -118.0167 -117.2061 -117.1405 -117.1013 -116.5133 -115.8882 -116.0702 -116.9070 -117.3465 -116.8779 -116.2488 -116.4205 -117.2718 -117.9043 -118.0388 -118.4102 -119.5746 -120.9129 -121.3554 -120.8252 -120.3207 -120.5204 -120.9220 -121.6629 -121.6197 -122.0771 -123.0783 -123.5497 -122.6100 -120.7664 -119.2932 -118.6590 -117.7218 -117.1222 -116.4928 -116.6245 -117.2760 -117.3615 -116.4106 -115.2076 -114.6855 -114.6770 -114.3031 -113.3692 -112.6754 -112.7789 -113.0581 -112.5260 -111.3818 -110.4348 -110.3468 -110.5946 -110.4145 -110.0313 -110.3327 -111.4727 -112.4978 -112.6066 -112.2466 -112.4642 -113.4494 -114.3674 -114.6644 -114.8811 -115.7627 -116.9962 -117.4850 -116.8210 -115.8397 -115.4558 -115.4621 -114.9997 -113.9460 -113.1388 -113.0993 -113.1615 -112.3434 -110.7370 -109.4090 -108.9551 -108.7904 -108.1571 -107.3129 -109.1235 -109.5015 -109.3490 -107.9751 -105.9892 -104.5564 -103.9436 -103.4202 -102.5765 -102.0541 -102.5855 -103.7720 -104.4517
-102.2405 -100.7898 -99.4622 -99.2324 -99.9678 -100.5857 -100.5487 -100.5856 -101.6208 -103.4441 -105.0060 -105.8753 -106.7405 -106.3699 -108.3775 -109.5997 -109.7865 -109.8965 -110.7523 -111.9684 -112.6442 -112.7647 -113.2492 -114.5666 -115.9368 -116.3190 -115.8215 -115.5430 -116.0796 -116.8163 -116.9677 -116.8099 -117.2905 -118.5721 -119.6388 -119.5884 -118.8097 -118.3905 -118.6138 -118.6767 -117.9816 -117.0860 -116.9064 -117.3227 -117.2264 -115.9984 -114.3452 -113.3218 -112.9445 -112.3021 -110.7851 -109.5489 -109.3796 -109.8414 -109.7678 -108.8004 -107.8164 -107.6589 -107.9968 -107.9151 -107.3313 -107.1464 -107.8863 -108.8010 -108.7607 -107.7210 -106.7018 -106.3379 -106.0788 -105.1453 -103.8058 -103.0801 -103.2712 -103.4474 -102.6636 -101.2205 -100.1981 -99.9570 -99.7492 -98.9525 -98.0919 -98.1273 -99.0147 -99.6287 -99.2085 -98.3070 -97.9273 -98.1105 -97.9912 -97.1918 -96.4909 -96.7538 -97.6496 -98.0197 -97.4169 -96.6565 -96.6301 -97.1024 -97.1980 -96.8248 -96.9235 -98.1385 -99.8118 -100.7724 -100.8394 -100.9347 -101.6890 -102.5603 -102.7091 -102.3203 -102.4115 -103.3643 -104.2866 -104.1541 -103.1420 -102.2883 -102.0121 -101.6245 -100.5033 -99.1824 -98.7273 -99.2544 -99.7205 -99.3151 -98.5067 -98.2920 -98.7658 -99.0709 -98.7673 -98.5933 -99.4674 -101.1363 -102.4173 -102.7258 -102.7473 -103.3454 -104.3112 -104.7525 -104.5248 -104.5849 -105.7027 -107.3524 -108.3841 -108.5461 -108.7233 -109.6008 -110.7042 -111.1894 -111.2023 -111.7924 -113.4506 -115.3510 -116.3992 -116.6224 -116.9622 -117.8228 -118.4918 -118.2577 -117.5727 -117.5276 -118.3453 -119.0375 -118.7337 -117.8129 -117.2676 -117.2632 -116.9851 -115.9756 -114.9844 -115.0475 -116.0691 -116.9273 -116.9701 -116.7957 -117.2542 -118.1567 -118.5687 -118.2461 -118.1002 -118.9633 -120.3900 -121.2065 -121.0420 -121.3636 -122.1050 -123.1134 -123.3755 -122.7484 -122.0930 -121.9646 -121.7925 -120.7513 -119.0533 -117.7585 -117.0514 -116.9482 -116.0593 -114.7744 -114.2136 -114.7057 -115.3140 -115.0903 -114.2828 -113.8174 -113.8585 -113.5614 -112.3775 -111.0011 -110.7549 -111.4379 -111.9679 -111.6588 -111.0611 -111.0576 -111.5349 -111.5760 -110.8934 -110.4022 -111.0485 -112.5237 -113.6832 -114.0694 -114.3872 -115.3066 -116.3739 -116.6332 -116.0604 -115.7077 -116.2954 -117.2245 -117.4048 -116.7141 -116.0296 -115.8442 -115.5128 -114.2383 -112.3665 -111.0802 -110.8705 -110.9325 -110.3266 -109.2450 -108.6025 -108.5997 -110.3784 -109.1209 -107.3212 -106.1690 -105.9006 -105.6183 -104.6699 -103.5963 -103.3109 -103.7344 -103.8873 -103.3222 -102.8196
-102.7342 -101.2768 -99.9028 -99.5574 -100.1668 -100.7275 -100.6723 -100.6230 -101.4869 -103.1705 -104.7014 -105.5576 -106.3091 -105.7992 -107.8533 -109.3560 -109.8319 -110.0198 -110.8206 -112.0961 -112.9759 -113.1910 -113.5066 -114.6215 -116.0927 -116.8371 -116.5514 -116.0918 -116.3012 -116.9301 -117.1364 -116.8090 -116.7984 -117.7043 -118.9317 -119.3834 -118.8600 -118.2451 -118.2425 -118.4479 -118.0338 -117.0356 -116.3760 -116.5659 -116.9136 -116.3872 -114.9626 -113.6023 -112.9258 -112.4466 -111.3097 -109.5911 -108.5600 -108.6219 -108.9742 -108.6233 -107.6522 -107.0006 -107.1034 -107.3147 -106.9077 -106.1955 -106.1442 -106.9907 -107.8088 -107.6613 -106.7600 -106.0500 -105.8430 -105.4369 -104.2374 -102.7534 -102.0100 -102.1663 -102.2729 -101.5285 -100.3042 -99.5401 -99.4036 -99.1145 -98.1659 -97.1758 -97.1184 -97.9783 -98.7118 -98.5874 -98.0570 -97.9839 -98.3590 -98.3366 -97.5261 -96.6789 -96.7503 -97.6161 -98.2325 -98.0256 -97.5856 -97.7375 -98.3402 -98.5279 -98.0416 -97.7345 -98.4857 -100.0102 -101.2187 -101.6300 -101.8801 -102.6627 -103.6445 -103.9118 -103.3158 -102.7869 -103.1268 -103.9358 -104.1633 -103.5092 -102.7313 -102.4753 -102.3232 -101.4289 -99.8407 -98.6111 -98.4880 -98.9812 -99.0897 -98.6609 -98.4939 -99.0889 -99.8551 -99.9279 -99.4452 -99.4563 -100.5471 -102.0715 -103.0436 -103.4290 -104.0429 -105.2466 -106.3325 -106.5001 -106.0517 -106.0976 -107.1373 -108.4670 -109.2108 -109.5102 -110.2165 -111.5623 -112.7362 -112.9970 -112.7653 -113.1332 -114.4382 -115.8649 -116.5974 -116.8879 -117.5552 -118.6657 -119.3115 -118.8388 -117.8112 -117.3314 -117.6366 -117.8967 -117.4573 -116.7575 -116.6399 -117.0664 -117.0985 -116.2107 -115.0996 -114.8327 -115.4955 -116.1931 -116.3606 -116.5139 -117.3949 -118.7569 -119.5559 -119.3255 -118.8197 -119.0105 -119.8188 -121.1040 -121.5605 -122.1664 -123.4557 -124.7845 -124.8517 -123.2559 -121.0181 -119.3644 -118.4021 -117.4005 -115.7881 -115.1238 -115.2949 -115.7933 -115.5707 -114.4365 -113.3217 -113.0367 -113.2447 -113.0531 -112.3400 -111.9190 -112.3084 -113.0808 -113.0512 -112.0885 -111.2008 -111.1166 -111.4122 -111.2725 -110.7601 -110.7678 -111.7131 -112.8423 -113.1692 -112.7745 -112.6672 -113.4097 -114.4221 -114.9023 -115.0150 -115.6386 -117.0212 -118.2669 -118.4236 -117.6929 -117.0935 -117.0660 -116.9660 -116.1166 -114.8844 -114.2211 -114.3030 -114.2050 -113.1089 -111.3913 -110.0939 -109.5359 -109.0063 -107.9262 -108.7903 -108.3493 -108.4998 -108.2720 -106.9962 -105.2379 -104.0746 -103.7346 -103.4827 -102.8594 -102.4626 -103.1231 -104.6214
-103.2236 -101.8289 -100.4866 -100.0251 -100.4352 -100.8957 -100.8813 -100.8508 -101.5806 -103.0694 -104.5144 -105.3749 -106.0402 -105.3100 -107.2249 -108.8705 -109.6626 -110.0459 -110.8337 -112.1048 -113.1635 -113.5825 -113.8512 -114.7074 -116.0690 -117.0575 -117.1141 -116.7037 -116.6627 -117.1002 -117.3560 -117.0390 -116.6727 -117.0205 -118.0087 -118.7425 -118.6225 -118.0591 -117.8340 -118.0123 -117.9051 -117.1108 -116.1613 -115.8440 -116.1154 -116.1066 -115.2346 -113.9211 -112.9615 -112.4420 -111.7021 -110.2220 -108.5619 -107.7638 -107.8198 -107.8709 -107.3143 -106.5259 -106.2409 -106.4797 -106.5187 -105.9380 -105.2718 -105.3263 -106.0761 -106.6467 -106.4164 -105.7419 -105.3467 -105.2525 -104.7535 -103.4671 -101.9860 -101.1930 -101.1449 -101.0395 -100.3055 -99.3259 -98.8290 -98.8252 -98.5853 -97.6984 -96.7326 -96.5536 -97.2043 -97.8628 -97.9255 -97.7327 -97.9651 -98.5872 -98.8316 -98.2652 -97.4579 -97.3045 -97.8973 -98.4698 -98.4677 -98.2675 -98.5718 -99.3524 -99.8360 -99.5754 -99.1282 -99.3839 -100.4335 -101.5042 -102.0227 -102.3317 -103.0880 -104.2091 -104.8642 -104.5561 -103.8130 -103.5245 -103.8107 -103.9474 -103.4191 -102.6275 -102.2854 -102.3581 -102.0520 -100.8996 -99.4592 -98.6573 -98.6559 -98.7680 -98.5010 -98.2600 -98.7380 -99.8563 -100.7544 -100.8840 -100.7235 -101.1348 -102.2360 -103.3150 -103.8673 -104.2953 -105.2948 -106.7897 -107.9186 -108.1309 -107.9103 -108.1411 -108.9809 -109.7684 -110.0519 -110.2808 -111.1849 -112.7010 -113.9539 -114.3556 -114.3411 -114.7474 -115.6959 -116.5003 -116.6945 -116.7223 -117.3143 -118.4076 -119.1220 -118.8598 -118.0515 -117.5453 -117.4940 -117.2620 -116.4463 -115.5614 -115.4066 -115.9739 -116.4122 -116.1243 -115.5182 -115.4083 -115.9101 -116.3499 -116.2885 -116.2069 -116.8726 -118.2414 -119.4148 -119.7371 -119.5558 -120.4289 -121.5498 -122.5786 -122.9233 -122.8187 -122.8163 -122.8337 -122.1655 -120.4910 -118.4732 -117.0575 -116.0235 -115.5254 -114.4142 -113.2322 -112.8272 -113.2345 -113.6093 -113.3105 -112.6676 -112.4102 -112.5877 -112.4927 -111.8794 -111.2112 -111.1983 -111.9078 -112.5301 -112.4525 -112.0232 -111.9846 -112.3953 -112.5555 -112.0444 -111.4178 -111.5677 -112.5866 -113.6745 -114.2038 -114.4830 -115.1961 -116.3317 -117.1165 -117.0631 -116.6793 -116.8345 -117.6213 -118.2523 -118.1166 -117.5405 -117.2272 -117.1880 -116.6767 -115.2419 -113.4426 -112.2165 -111.7345 -111.2837 -110.3103 -109.1740 -108.5864 -110.5413 -110.0860 -108.6111 -106.6910 -105.3208 -104.7569 -104.3768 -103.6986 -103.1178 -103.3369 -104.2940 -105.1063 -105.1479
-103.6705 -102.3997 -101.1649 -100.6055 -100.7674 -101.0853 -101.1489 -101.2340 -101.8920 -103.1617 -104.4674 -105.3375 -105.9669 -104.9975 -106.6225 -108.2250 -109.2675 -109.9206 -110.7679 -111.9977 -113.1681 -113.8459 -114.2308 -114.9004 -116.0094 -117.0288 -117.3944 -117.2105 -117.0803 -117.3054 -117.5382 -117.3411 -116.8731 -116.7470 -117.2312 -117.8671 -118.0280 -117.6846 -117.3670 -117.3988 -117.4522 -117.0223 -116.1669 -115.4857 -115.3460 -115.3877 -114.9754 -114.0000 -112.9685 -112.2838 -111.7073 -110.7344 -109.1904 -107.7628 -107.0858 -106.9193 -106.6292 -106.0042 -105.4687 -105.4289 -105.6600 -105.5802 -105.0435 -104.5676 -104.6681 -105.1766 -105.4488 -105.1775 -104.7213 -104.5276 -104.4560 -103.9388 -102.7727 -101.4652 -100.6485 -100.3268 -99.9495 -99.1930 -98.3926 -98.0499 -98.1053 -97.9817 -97.3587 -96.6350 -96.4454 -96.8644 -97.3503 -97.4850 -97.5011 -97.8894 -98.6383 -99.1594 -99.0255 -98.5385 -98.3593 -98.6873 -99.0736 -99.0961 -98.9626 -99.2197 -99.9696 -100.6720 -100.8241 -100.6175 -100.6938 -101.3224 -102.0958 -102.5288 -102.7299 -103.2233 -104.1649 -105.0292 -105.2152 -104.7807 -104.3302 -104.2157 -104.1210 -103.5726 -102.6588 -101.9644 -101.7977 -101.7592 -101.2512 -100.2618 -99.3844 -99.0570 -99.0474 -98.8651 -98.5161 -98.5556 -99.3488 -100.5355 -101.4345 -101.8632 -102.2919 -103.1472 -104.2169 -104.9593 -105.2805 -105.7058 -106.6914 -107.9938 -108.9519 -109.3131 -109.5110 -110.0411 -110.7950 -111.2560 -111.2782 -111.3727 -112.0862 -113.2911 -114.3378 -114.8685 -115.2125 -115.8525 -116.7104 -117.2311 -117.1531 -116.9099 -117.0972 -117.7039 -118.1306 -117.9685 -117.4965 -117.2457 -117.2456 -116.9899 -116.1750 -115.2038 -114.7524 -114.9573 -115.2985 -115.3204 -115.2168 -115.5030 -116.2416 -116.8951 -117.0204 -116.8722 -117.0886 -117.8644 -118.7075 -119.7867 -120.4128 -121.3882 -122.6962 -123.5850 -123.3117 -121.9669 -120.3434 -119.0412 -117.9557 -116.7307 -115.1569 -114.4963 -114.3362 -114.2420 -113.6533 -112.6340 -111.8155 -111.6016 -111.6930 -111.5494 -111.1431 -111.1313 -111.8235 -112.6070 -112.8463 -112.4741 -112.0685 -112.1079 -112.3981 -112.4240 -112.1231 -112.0136 -112.4949 -113.2721 -113.7000 -113.6057 -113.4973 -113.8872 -114.6418 -115.2200 -115.4543 -115.7947 -116.6709 -117.8361 -118.5934 -118.6248 -118.3283 -118.2301 -118.2740 -117.9439 -117.0338 -115.9989 -115.3907 -115.1277 -114.5894 -113.4220 -111.9873 -110.8713 -110.1280 -109.2822 -110.0715 -108.7324 -107.7553 -107.2156 -106.5944 -105.5295 -104.3522 -103.6911 -103.6809 -103.8425 -103.7831 -103.7510 -104.2747
-104.0439 -102.9442 -101.8821 -101.2583 -101.1533 -101.2956 -101.4520 -101.7282 -102.3896 -103.4488 -104.5729 -105.4422 -106.0910 -104.9211 -106.1720 -107.5445 -108.6949 -109.6191 -110.5977 -111.7835 -112.9791 -113.8942 -114.5326 -115.1862 -116.0364 -116.8892 -117.3982 -117.4908 -117.4433 -117.5167 -117.6368 -117.5409 -117.1859 -116.8647 -116.8633 -117.1022 -117.2351 -117.0767 -116.8061 -116.6875 -116.6907 -116.5194 -116.0111 -115.3714 -114.9242 -114.6968 -114.3836 -113.7343 -112.8596 -112.0592 -111.4114 -110.6771 -109.6470 -108.2937 -107.1282 -106.4167 -105.9416 -105.4114 -104.8388 -104.4909 -104.4892 -104.6004 -104.5064 -104.2016 -103.9911 -104.0857 -104.3199 -104.3570 -104.1058 -103.7969 -103.6268 -103.4523 -102.9516 -102.0492 -101.0450 -100.2716 -99.7238 -99.1352 -98.3882 -97.7043 -97.3619 -97.3186 -97.2483 -96.9549 -96.6237 -96.5822 -96.8825 -97.2516 -97.4637 -97.6327 -98.0335 -98.6911 -99.2894 -99.5338 -99.5013 -99.5226 -99.7576 -100.0200 -100.0731 -99.9923 -100.1011 -100.5581 -101.1406 -101.5163 -101.6540 -101.8404 -102.2885 -102.8583 -103.2559 -103.4374 -103.6734 -104.1785 -104.7940 -105.1456 -105.0791 -104.8088 -104.5975 -104.4001 -103.9453 -103.1426 -102.2649 -101.6520 -101.3146 -100.9570 -100.3866 -99.7747 -99.4327 -99.4090 -99.4467 -99.3581 -99.3140 -99.6541 -100.4581 -101.4350 -102.2748 -103.0009 -103.8667 -104.9482 -105.9856 -106.6921 -107.1257 -107.6257 -108.3892 -109.2357 -109.8610 -110.2398 -110.6451 -111.2660 -111.9399 -112.3635 -112.5078 -112.6880 -113.1871 -113.9206 -114.5731 -115.0169 -115.4547 -116.1035 -116.8467 -117.3300 -117.3877 -117.2418 -117.2153 -117.3304 -117.3169 -117.0047 -116.5744 -116.3281 -116.2880 -116.1607 -115.7253 -115.1404 -114.7676 -114.7428 -114.8537 -114.8727 -114.8916 -115.2055 -115.8967 -116.6745 -117.1930 -117.4414 -117.7019 -118.1401 -119.5693 -120.3314 -120.8410 -121.1961 -121.4038 -121.2120 -120.3662 -118.9838 -117.5344 -115.9012 -115.3079 -114.5517 -113.5873 -112.7087 -112.2141 -112.0408 -111.8500 -111.4532 -111.0271 -110.8446 -111.0155 -111.3552 -111.4339 -111.4408 -111.6944 -112.2241 -112.7208 -112.9196 -112.9150 -113.0017 -113.2633 -113.4623 -113.3806 -113.1555 -113.1559 -113.5494 -114.1186 -114.5621 -114.8781 -115.3287 -116.0428 -116.7946 -117.2630 -117.4329 -117.6070 -118.0054 -118.4734 -118.6752 -118.5118 -118.2119 -117.9826 -117.6947 -117.0311 -115.9120 -114.6358 -113.5460 -112.6528 -111.6966 -110.5558 -109.4495 -110.6645 -110.0055 -109.0478 -107.6584 -106.1167 -104.8705 -104.0990 -103.6314 -103.2989 -103.2272 -103.6680 -104.5895 -105.5828
-104.3229 -103.4229 -102.5808 -101.9364 -101.5782 -101.5291 -101.7739 -102.2866 -103.0260 -103.9128 -104.8322 -105.6762 -106.3870 -105.0939 -105.9666 -106.9683 -108.0450 -109.1624 -110.3112 -111.4774 -112.6187 -113.6792 -114.6253 -115.4571 -116.1819 -116.7843 -117.2328 -117.5154 -117.6572 -117.6991 -117.6629 -117.5473 -117.3579 -117.1292 -116.9076 -116.7146 -116.5359 -116.3494 -116.1560 -115.9734 -115.8033 -115.6158 -115.3726 -115.0611 -114.6963 -114.2880 -113.8181 -113.2562 -112.5955 -111.8622 -111.0878 -110.2797 -109.4287 -108.5424 -107.5003 -106.5131 -105.6680 -104.9548 -104.3629 -103.9041 -103.5960 -103.4292 -103.3599 -103.3414 -103.3541 -103.3976 -103.4571 -103.4883 -103.4430 -103.3019 -103.0753 -102.7712 -102.3742 -101.8637 -101.2486 -100.5738 -99.8884 -99.2158 -98.5610 -97.9422 -97.4040 -96.9908 -96.2110 -96.0270 -95.9761 -96.0650 -96.7113 -96.9991 -97.3624 -97.7609 -98.1818 -98.6301 -99.0951 -99.5378 -99.9184 -100.2295 -100.4936 -100.7304 -100.9345 -101.0939 -101.2214 -101.3579 -101.5388 -101.7663 -102.0196 -102.2903 -102.5948 -102.9494 -103.3398 -103.7255 -104.0747 -104.3849 -104.6630 -104.8924 -105.0304 -105.0408 -104.9216 -104.6946 -104.3713 -103.9418 -103.4020 -102.7823 -102.1413 -101.5286 -100.9634 -100.4527 -100.0229 -99.7223 -99.5879 -99.6205 -99.7981 -100.1114 -100.5743 -101.1972 -101.9562 -102.8006 -103.6877 -104.6030 -105.5411 -106.4741 -107.3524 -108.1385 -108.8330 -109.4600 -110.0312 -110.5346 -110.9609 -111.3307 -111.6858 -112.0536 -112.4288 -112.7949 -113.1580 -113.5466 -113.9797 -114.4416 -114.8981 -115.3304 -115.7452 -116.1465 -116.5085 -116.7857 -116.9501 -117.0095 -116.9862 -116.8845 -116.6909 -116.4053 -116.0630 -115.7158 -115.3952 -115.1029 -114.8389 -114.6290 -114.5152 -114.5203 -114.6315 -114.8239 -115.0920 -115.4484 -115.8903 -116.3782 -116.8547 -117.2812 -118.3097 -119.0245 -119.6700 -120.0730 -120.0894 -119.6897 -118.9636 -118.0514 -117.0720 -115.7705 -115.0336 -114.2853 -113.5562 -112.8487 -112.1662 -111.5388 -111.0116 -110.6074 -110.3130 -110.2026 -110.4460 -110.7670 -111.1571 -111.5764 -111.9756 -112.3324 -112.6569 -112.9626 -113.2384 -113.4605 -113.6261 -113.7650 -113.9128 -114.0788 -114.2496 -114.4227 -114.6252 -114.8931 -115.2355 -115.6296 -116.0505 -116.4964 -116.9755 -117.4723 -117.9370 -118.3153 -118.5812 -118.7345 -118.7692 -118.6551 -118.3594 -117.8808 -117.2512 -116.5040 -115.6474 -114.6779 -113.6146 -112.5093 -111.4180 -110.3696 -111.3691 -110.2631 -108.9849 -107.6436 -106.3464 -105.1822 -104.2365 -103.6003 -103.3435 -103.4721 -103.9175 -104.5700 -105.3194
-104.4994 -103.8066 -103.2086 -102.5907 -102.0227 -101.7893 -102.1056 -102.8669 -103.7453 -104.5195 -105.2361 -106.0224 -106.8119 -105.4850 -106.0476 -106.6162 -107.4477 -108.6191 -109.9219 -111.1021 -112.1388 -113.2130 -114.4122 -115.5544 -116.3640 -116.7849 -117.0371 -117.3450 -117.6764 -117.8141 -117.6630 -117.3952 -117.2479 -117.2297 -117.1114 -116.7189 -116.1619 -115.7119 -115.4840 -115.3200 -115.0162 -114.5981 -114.2899 -114.2142 -114.2045 -113.9737 -113.4341 -112.7729 -112.1945 -111.6606 -110.9559 -109.9916 -108.9544 -108.1047 -107.4720 -106.7039 -105.7696 -104.7925 -104.0184 -103.5458 -103.2077 -102.7959 -102.3398 -102.0816 -102.1714 -102.4629 -102.6666 -102.6678 -102.6132 -102.6653 -102.7451 -102.5978 -102.1022 -101.4324 -100.8630 -100.4568 -100.0227 -99.3904 -98.6495 -97.5801 -97.1003 -96.7137 -96.2267 -95.6862 -95.3636 -95.4506 -95.8431 -96.2809 -97.0571 -97.4147 -98.0425 -98.8485 -99.5423 -99.9513 -100.2002 -100.5322 -100.9985 -101.4065 -101.5850 -101.6233 -101.7746 -102.1424 -102.5474 -102.7466 -102.7332 -102.7423 -102.9602 -103.3042 -103.5501 -103.6380 -103.7633 -104.1294 -104.6733 -105.1111 -105.2515 -105.1884 -105.1381 -105.1359 -104.9817 -104.5047 -103.8081 -103.1778 -102.7625 -102.4233 -101.9391 -101.3071 -100.7603 -100.4852 -100.4025 -100.2914 -100.1011 -100.0509 -100.3857 -101.0889 -101.9089 -102.6621 -103.4279 -104.3947 -105.5586 -106.6679 -107.4909 -108.0758 -108.6742 -109.4237 -110.1848 -110.7328 -111.0539 -111.3675 -111.8455 -112.3879 -112.7436 -112.8292 -112.8469 -113.0510 -113.4576 -113.8574 -114.1079 -114.3274 -114.7404 -115.3693 -115.9674 -116.2844 -116.3391 -116.3609 -116.4823 -116.5720 -116.4188 -116.0278 -115.6448 -115.4734 -115.4364 -115.2847 -114.9170 -114.5116 -114.3079 -114.3195 -114.3420 -114.2435 -114.1636 -114.3604 -114.8922 -115.5321 -116.0222 -116.3499 -116.7033 -117.7926 -118.4606 -118.7609 -118.5933 -118.1634 -117.7174 -116.6753 -116.3007 -115.6370 -114.8534 -114.1813 -113.6273 -112.9791 -112.0999 -111.1397 -110.3937 -109.9796 -109.8147 -109.9144 -110.0043 -110.2908 -110.8708 -111.5596 -112.0736 -112.3448 -112.5757 -112.9686 -113.4699 -113.8494 -114.0065 -114.1099 -114.3880 -114.8362 -115.2133 -115.3364 -115.3085 -115.3928 -115.6969 -116.0628 -116.2973 -116.4425 -116.7359 -117.3044 -117.9785 -118.4634 -118.6579 -118.7262 -118.8406 -118.9289 -118.7497 -118.2000 -117.4609 -116.7901 -116.2182 -115.5278 -114.5415 -113.3553 -112.2270 -111.2673 -112.3267 -111.0588 -109.4264 -107.7818 -106.4143 -105.3327 -104.4004 -103.6316 -103.2549 -103.4532 -104.1081 -104.8774 -105.5195
-104.5786 -104.0792 -103.7233 -103.1750 -102.4647 -102.0789 -102.4457 -103.4361 -104.4908 -105.2227 -105.7653 -106.4633 -107.3175 -106.0304 -106.3974 -106.5599 -107.0301 -108.0921 -109.4747 -110.6892 -111.6084 -112.5685 -113.8751 -115.3365 -116.4190 -116.8440 -116.8997 -117.0828 -117.5108 -117.8218 -117.6730 -117.2074 -116.9023 -116.9836 -117.1356 -116.8729 -116.1265 -115.3275 -114.8905 -114.7372 -114.4418 -113.8086 -113.1527 -112.9256 -113.1436 -113.3273 -113.0352 -112.3436 -111.6932 -111.3060 -110.9008 -110.0628 -108.8008 -107.5927 -106.8477 -106.4397 -105.7979 -104.8108 -103.7815 -103.1404 -102.9137 -102.6796 -102.0958 -101.3454 -100.9409 -101.1185 -101.5597 -101.7764 -101.6783 -101.6234 -101.8990 -102.2897 -102.2822 -101.6653 -100.7890 -100.1602 -99.8681 -99.5380 -98.3407 -97.3064 -96.5748 -96.3562 -96.3292 -96.0485 -95.5055 -95.1520 -95.3572 -95.9692 -96.5186 -97.2241 -97.4246 -98.1202 -99.2620 -100.3361 -100.9236 -101.1437 -101.4469 -102.0242 -102.5694 -102.6854 -102.4222 -102.2679 -102.5893 -103.2052 -103.6148 -103.6018 -103.4724 -103.6452 -104.1105 -104.4379 -104.3234 -103.9959 -103.9689 -104.4341 -105.0357 -105.2983 -105.1774 -105.0585 -105.2162 -105.4186 -105.1805 -104.3598 -103.3626 -102.6963 -102.4144 -102.1250 -101.5397 -100.8725 -100.5920 -100.8363 -101.2236 -101.3045 -101.1067 -101.1035 -101.6463 -102.5586 -103.3827 -103.9634 -104.6341 -105.7714 -107.2691 -108.5933 -109.3614 -109.7450 -110.2096 -110.9216 -111.5584 -111.7491 -111.5892 -111.5775 -112.0404 -112.7486 -113.1990 -113.2170 -113.1444 -113.3909 -113.9148 -114.2813 -114.2256 -114.0160 -114.1575 -114.7894 -115.5153 -115.8696 -115.8480 -115.8523 -116.1330 -116.4329 -116.2850 -115.6022 -114.8253 -114.4400 -114.4455 -114.4196 -114.0869 -113.6798 -113.6452 -114.0663 -114.5265 -114.5952 -114.3435 -114.2561 -114.6460 -115.2891 -115.7206 -115.8141 -115.9197 -116.3866 -117.0677 -117.4292 -117.1442 -116.4501 -115.8363 -115.4545 -114.9777 -114.0721 -112.8850 -111.9289 -111.4949 -111.3159 -110.8983 -110.1865 -109.7988 -109.8428 -110.2377 -110.5392 -110.5139 -110.4572 -110.8509 -111.7726 -112.7810 -113.4188 -113.7169 -114.0860 -114.7455 -115.4095 -115.6270 -115.3585 -115.0686 -115.2095 -115.7206 -116.1494 -116.2352 -116.2285 -116.5546 -117.2471 -117.8641 -118.0033 -117.7845 -117.7052 -118.0420 -118.5304 -118.7081 -118.4860 -118.2350 -118.2828 -118.4500 -118.2138 -117.3100 -116.0403 -114.9117 -114.0539 -113.1295 -111.8345 -112.3546 -111.0316 -110.0003 -109.0135 -107.6784 -106.0262 -104.5747 -103.7965 -103.6395 -103.6775 -103.6876 -103.9256 -104.7515
-104.5784 -104.2394 -104.0975 -103.6516 -102.8809 -102.3978 -102.7978 -103.9731 -105.2125 -105.9704 -106.3914 -106.9827 -107.8620 -106.6515 -106.9485 -106.8074 -106.8838 -107.6940 -109.0399 -110.2780 -111.0976 -111.8593 -113.0884 -114.7460 -116.1771 -116.8151 -116.8064 -116.8081 -117.2047 -117.6851 -117.6770 -117.0998 -116.5077 -116.4424 -116.7759 -116.8435 -116.2178 -115.2003 -114.4485 -114.1965 -114.0127 -113.3811 -112.3894 -111.6754 -111.6843 -112.1248 -112.2828 -111.8192 -111.1005 -110.6792 -110.5692 -110.2046 -109.1361 -107.6185 -106.3663 -105.7586 -105.4382 -104.7437 -103.6452 -102.6605 -102.2778 -102.3377 -102.1903 -101.4660 -100.5301 -100.0694 -100.3010 -100.7469 -100.8329 -100.5765 -100.5273 -101.0357 -101.7460 -101.9439 -101.3541 -100.4381 -99.8382 -99.1448 -98.6226 -97.5605 -96.2508 -95.4031 -95.3539 -95.6976 -95.7830 -95.4783 -95.2906 -95.7079 -96.5755 -97.2682 -97.8383 -97.7520 -98.2400 -99.4358 -100.7703 -101.6052 -101.9281 -102.2817 -103.0290 -103.8610 -104.1512 -103.7332 -103.1524 -103.0768 -103.5621 -104.0439 -104.0548 -103.7921 -103.8530 -104.4664 -105.1651 -105.3105 -104.8442 -104.3634 -104.4258 -104.9152 -105.2224 -105.0095 -104.6209 -104.6418 -105.1407 -105.5254 -105.2002 -104.2469 -103.3166 -102.8701 -102.6825 -102.2018 -101.3110 -100.5542 -100.5379 -101.2227 -101.9611 -102.2432 -102.2594 -102.6158 -103.5590 -104.6580 -105.3286 -105.5606 -105.9558 -107.0180 -108.5412 -109.8306 -110.4893 -110.8261 -111.4061 -112.3033 -112.9736 -112.9126 -112.3015 -111.8539 -112.0345 -112.5778 -112.8725 -112.7348 -112.6297 -113.0762 -113.9673 -114.6419 -114.6371 -114.2224 -114.0733 -114.4785 -115.0287 -115.1519 -114.8326 -114.6359 -115.0025 -115.6725 -115.9456 -115.4777 -114.6651 -114.1620 -114.1208 -114.0693 -113.5632 -112.8073 -112.4769 -112.9407 -113.8180 -114.4063 -114.4704 -114.4520 -114.8632 -115.6116 -116.0833 -115.8843 -115.3379 -115.1247 -115.4860 -115.9447 -115.8720 -115.2163 -114.5195 -114.2126 -114.0600 -113.4366 -112.1097 -110.5805 -109.6268 -109.6358 -109.8377 -109.7359 -109.4676 -109.6205 -110.4720 -111.5833 -112.2565 -112.3164 -112.2833 -112.7331 -113.6159 -114.3479 -114.5525 -114.5392 -114.9320 -115.8917 -116.8783 -117.2510 -116.9931 -116.7005 -116.8561 -117.2735 -117.3769 -116.9687 -116.5380 -116.7218 -117.5564 -118.4191 -118.7331 -118.5916 -118.5625 -118.9262 -119.2840 -119.0196 -118.0564 -116.9869 -116.4064 -116.2412 -115.8728 -114.8993 -113.6124 -112.6202 -114.0824 -113.3321 -111.7133 -109.3913 -107.1533 -105.6400 -104.7770 -104.0575 -103.3018 -102.9490 -103.5166 -104.8847 -106.2895
-104.5278 -104.3007 -104.3218 -103.9954 -103.2497 -102.7421 -103.1678 -104.4690 -105.8722 -106.7111 -107.0794 -107.5661 -108.4170 -107.2746 -107.6027 -107.3036 -107.0419 -107.5170 -108.6985 -109.9126 -110.6627 -111.2055 -112.1983 -113.8422 -115.5456 -116.5240 -116.6438 -116.5273 -116.8007 -117.3746 -117.5982 -117.0909 -116.2537 -115.8400 -116.0868 -116.4295 -116.1449 -115.1721 -114.1554 -113.6709 -113.5583 -113.1500 -112.1191 -110.9335 -110.3622 -110.6042 -111.0587 -111.0049 -110.3924 -109.8199 -109.7427 -109.8647 -109.4460 -108.1717 -106.5548 -105.3881 -104.8805 -104.4814 -103.5979 -102.3775 -101.4939 -101.3799 -101.6732 -101.5948 -100.8299 -99.8827 -99.4870 -99.7681 -100.1349 -100.0181 -99.5657 -99.4651 -100.0958 -101.0191 -101.4172 -100.9789 -100.2017 -99.1201 -98.8000 -98.2489 -97.0278 -95.4761 -94.4452 -94.4109 -94.9910 -95.4238 -95.4406 -95.5111 -96.1941 -97.3850 -98.3719 -98.9587 -98.6919 -98.8517 -99.8129 -101.1276 -102.0549 -102.4084 -102.7197 -103.5350 -104.6891 -105.4326 -105.2752 -104.5597 -104.0875 -104.2348 -104.5892 -104.5204 -103.9929 -103.6474 -104.0474 -104.9838 -105.6685 -105.6016 -105.1036 -104.8968 -105.2383 -105.6311 -105.4484 -104.7209 -104.1429 -104.2775 -104.8920 -105.2088 -104.7808 -103.9698 -103.4752 -103.4871 -103.4718 -102.8479 -101.7474 -100.9501 -101.0519 -101.8333 -102.5600 -102.8532 -103.1009 -103.9330 -105.3944 -106.8105 -107.5195 -107.6161 -107.8302 -108.6808 -109.8936 -110.7577 -110.9868 -111.0565 -111.6173 -112.6808 -113.5514 -113.5994 -112.9745 -112.4280 -112.4568 -112.7783 -112.7453 -112.1955 -111.7129 -111.9800 -112.9752 -113.9667 -114.3147 -114.1499 -114.1416 -114.6461 -115.2538 -115.2750 -114.5864 -113.8281 -113.7039 -114.1974 -114.6185 -114.4210 -113.8255 -113.5200 -113.8054 -114.2098 -114.0384 -113.2150 -112.4188 -112.3450 -112.9498 -113.5562 -113.6802 -113.5942 -113.9577 -114.9615 -116.0086 -116.3280 -115.8114 -115.0982 -114.8137 -114.8590 -114.5838 -113.6224 -112.3895 -111.6373 -111.5878 -111.7359 -111.5669 -110.8109 -110.1180 -110.0531 -110.4398 -110.6059 -110.2336 -109.7972 -110.0538 -111.1766 -112.5440 -113.4326 -113.7996 -114.2430 -115.2026 -116.3647 -116.9861 -116.7638 -116.2195 -116.1372 -116.7032 -117.3502 -117.4738 -117.1657 -117.0943 -117.6791 -118.5457 -118.9203 -118.5103 -117.8393 -117.6435 -118.0381 -118.4286 -118.2573 -117.6892 -117.4158 -117.8053 -118.4083 -118.4136 -117.5324 -116.2811 -115.3438 -114.7743 -113.9820 -114.5087 -112.4971 -110.6455 -109.4431 -108.5743 -107.4042 -105.8290 -104.4765 -104.0170 -104.3987 -104.9113 -105.0052 -104.8993
-104.4632 -104.2898 -104.4055 -104.1974 -103.5546 -103.1042 -103.5610 -104.9251 -106.4464 -107.3997 -107.7904 -108.1988 -108.9706 -107.8476 -108.2579 -107.9471 -107.4711 -107.6078 -108.5220 -109.6353 -110.3357 -110.6975 -111.3739 -112.7873 -114.5607 -115.8579 -116.2583 -116.1686 -116.3095 -116.8739 -117.3272 -117.0710 -116.1926 -115.4210 -115.3274 -115.6868 -115.7353 -115.0310 -113.9343 -113.1653 -112.9594 -112.8047 -112.0653 -110.7675 -109.6307 -109.2960 -109.6271 -109.8828 -109.5541 -108.9030 -108.5878 -108.8218 -109.0506 -108.5366 -107.1848 -105.6625 -104.6697 -104.1958 -103.6039 -102.4859 -101.1740 -100.3889 -100.4444 -100.8419 -100.7978 -100.0974 -99.3031 -99.0840 -99.4460 -99.7471 -99.4727 -98.8644 -98.6640 -99.2583 -100.2079 -100.7046 -99.9260 -99.0926 -98.5480 -98.3526 -97.9252 -96.7887 -95.2368 -94.1333 -94.0461 -94.6905 -95.3059 -95.5237 -95.7328 -96.5377 -97.9560 -99.6874 -100.1451 -100.0177 -100.0267 -100.7193 -101.8621 -102.7400 -103.0016 -103.0673 -103.6223 -104.7817 -105.8987 -106.2482 -105.8112 -105.2660 -105.2058 -105.4870 -105.4559 -104.7820 -103.9204 -103.6544 -104.2340 -105.0965 -105.4910 -105.2931 -105.0796 -105.3934 -106.0593 -106.3539 -105.8360 -104.8798 -104.2862 -104.4103 -104.7990 -104.7466 -104.1196 -103.4994 -103.4827 -103.9575 -104.2030 -103.7097 -102.7792 -102.2148 -102.4540 -103.1340 -103.5782 -103.6270 -103.8427 -104.8451 -106.5459 -108.1729 -109.0692 -109.3602 -109.7344 -110.6011 -111.6042 -112.0506 -111.7516 -111.2934 -111.4110 -112.1765 -112.9308 -113.0366 -112.5881 -112.2674 -112.5254 -113.0444 -113.1100 -112.4654 -111.6578 -111.4679 -112.0668 -112.8619 -113.1968 -113.0936 -113.1806 -113.8974 -114.9077 -115.4132 -115.0207 -114.1718 -113.6444 -113.6971 -113.8366 -113.4622 -112.6284 -112.0328 -112.2344 -113.0030 -113.5552 -113.4133 -112.9102 -112.7671 -113.2424 -113.8370 -113.8934 -113.3900 -113.0007 -113.3399 -114.2545 -114.9743 -114.9505 -114.4207 -114.0615 -114.1450 -114.1854 -113.4944 -112.0830 -110.8002 -110.2042 -110.3096 -110.4726 -110.1880 -109.6963 -109.6968 -110.5038 -111.6295 -112.2884 -112.2544 -112.0903 -112.4906 -113.4933 -114.4639 -114.8589 -114.8753 -115.2262 -116.2968 -117.6555 -118.4917 -118.4861 -118.1235 -118.0985 -118.5097 -118.7741 -118.3571 -117.4635 -116.8786 -117.1266 -117.9050 -118.4405 -118.3542 -118.0435 -118.1515 -118.7513 -119.2004 -118.8451 -117.7669 -116.7078 -116.2543 -116.2094 -115.8665 -114.8565 -113.5848 -114.7523 -114.3518 -113.6790 -112.1084 -109.7420 -107.4078 -105.8635 -105.1032 -104.5397 -103.8222 -103.3223 -103.7110 -105.1124
-104.4249 -104.2436 -104.3756 -104.2661 -103.7870 -103.4737 -103.9794 -105.3493 -106.9269 -108.0020 -108.4842 -108.8630 -109.5238 -108.3477 -108.8328 -108.6189 -108.0826 -107.9548 -108.5526 -109.4799 -110.1232 -110.3729 -110.7491 -111.7884 -113.3838 -114.8314 -115.5409 -115.6230 -115.7037 -116.1828 -116.7756 -116.8524 -116.1873 -115.2612 -114.7683 -114.8717 -115.0412 -114.6538 -113.6841 -112.7129 -112.2528 -112.1609 -111.8049 -110.7993 -109.4800 -108.5748 -108.4331 -108.6709 -108.6228 -108.0848 -107.5108 -107.4454 -107.8404 -108.0379 -107.4511 -106.1860 -104.9111 -104.1224 -103.6290 -102.8292 -101.5340 -100.1997 -99.4749 -99.5460 -99.8857 -99.8179 -99.2369 -98.6804 -98.6849 -99.1566 -99.4702 -99.1845 -98.5609 -98.2951 -98.7522 -99.5610 -99.4324 -98.9457 -98.1636 -97.6943 -97.6314 -97.4627 -96.6981 -95.5013 -94.5985 -94.5489 -95.1830 -95.8315 -96.0838 -96.2253 -96.8687 -98.6419 -99.9746 -100.8555 -101.1150 -101.2632 -101.8763 -102.9294 -103.8269 -104.0910 -103.9248 -104.0048 -104.7296 -105.7660 -106.4026 -106.3178 -105.9026 -105.7859 -106.1056 -106.3537 -105.9738 -105.0347 -104.2144 -104.1026 -104.5946 -105.0500 -105.0281 -104.7695 -104.8835 -105.6008 -106.4455 -106.7081 -106.1978 -105.4353 -105.0708 -105.1822 -105.2359 -104.7456 -103.8748 -103.2947 -103.4517 -104.0675 -104.4388 -104.2055 -103.7305 -103.6728 -104.2407 -104.9702 -105.2759 -105.1473 -105.1977 -105.9987 -107.4432 -108.8471 -109.6764 -110.0833 -110.6573 -111.6833 -112.7556 -113.1925 -112.7925 -112.0794 -111.7579 -111.9826 -112.2532 -112.0417 -111.4342 -111.0581 -111.3751 -112.1404 -112.6452 -112.4791 -111.9627 -111.7708 -112.1742 -112.7528 -112.8983 -112.5312 -112.2155 -112.5326 -113.4159 -114.1959 -114.3078 -113.8753 -113.5210 -113.6303 -113.9045 -113.7128 -112.8445 -111.8081 -111.3293 -111.6023 -112.1242 -112.2911 -112.0786 -112.0403 -112.6324 -113.6350 -114.3337 -114.2685 -113.7146 -113.3577 -113.5282 -113.8532 -113.7085 -112.9528 -112.1079 -111.8614 -112.3085 -112.6911 -112.4304 -111.6273 -110.9312 -110.8120 -111.0569 -111.0567 -110.5535 -109.9944 -110.0828 -111.0205 -112.2877 -113.2054 -113.6497 -114.1205 -115.0991 -116.4308 -117.4399 -117.6561 -117.3367 -117.1940 -117.6290 -118.3242 -118.6437 -118.3805 -118.0028 -118.1198 -118.7734 -119.3593 -119.2771 -118.5851 -117.9287 -117.8263 -118.1152 -118.1757 -117.6718 -116.9630 -116.7153 -117.1425 -117.7334 -117.7756 -117.0947 -116.1883 -115.6149 -115.3375 -116.7670 -115.2901 -113.0585 -110.8837 -109.3351 -108.2651 -107.1403 -105.7818 -104.6622 -104.4146 -105.1048 -106.0939 -106.6595
-104.4524 -104.2052 -104.2741 -104.2276 -103.9486 -103.8395 -104.4205 -105.7527 -107.3188 -108.4975 -109.1236 -109.5361 -110.0832 -108.7814 -109.2838 -109.2130 -108.7568 -108.4915 -108.7908 -109.4640 -110.0118 -110.2117 -110.3803 -111.0210 -112.2428 -113.5931 -114.4935 -114.8100 -114.9378 -115.3181 -115.9218 -116.2728 -115.9815 -115.2000 -114.4902 -114.2433 -114.2818 -114.0767 -113.3399 -112.3403 -111.6016 -111.3177 -111.1357 -110.5485 -109.4686 -108.3510 -107.7270 -107.6551 -107.6867 -107.3756 -106.7687 -106.3338 -106.4068 -106.7708 -106.8364 -106.2349 -105.1811 -104.2128 -103.5983 -103.0630 -102.1327 -100.7953 -99.5420 -98.8489 -98.8027 -98.9526 -98.8026 -98.3354 -97.9991 -98.1760 -98.7266 -99.1147 -98.9810 -98.5346 -98.3298 -98.6692 -98.6537 -98.6613 -98.0936 -97.3024 -96.8262 -96.8165 -96.9028 -96.6397 -96.0360 -95.5768 -95.7096 -96.3591 -97.0084 -97.2630 -97.2824 -97.6044 -98.8273 -100.0238 -101.0737 -101.6674 -102.0574 -102.7191 -103.7734 -104.8127 -105.3261 -105.2565 -105.0744 -105.2823 -105.8870 -106.4145 -106.4450 -106.0777 -105.8151 -105.9968 -106.4107 -106.5153 -106.0335 -105.2687 -104.7960 -104.8654 -105.1675 -105.2124 -104.8979 -104.6354 -104.8919 -105.6513 -106.3899 -106.6002 -106.2957 -105.9498 -105.9450 -106.1432 -106.0510 -105.3963 -104.4775 -103.8925 -103.9371 -104.3261 -104.5371 -104.3966 -104.2643 -104.6165 -105.4929 -106.4220 -106.9123 -106.9757 -107.1071 -107.7427 -108.7885 -109.7311 -110.2044 -110.3833 -110.7705 -111.6100 -112.5778 -113.0943 -112.9236 -112.4083 -112.0869 -112.1175 -112.1409 -111.7290 -110.9181 -110.2316 -110.1580 -110.6506 -111.1937 -111.3611 -111.2571 -111.3586 -111.9422 -112.7334 -113.1713 -113.0033 -112.5572 -112.3906 -112.6981 -113.1225 -113.1705 -112.7706 -112.3562 -112.3829 -112.8123 -113.1352 -112.9147 -112.2581 -111.7021 -111.6406 -111.9212 -112.0502 -111.7737 -111.3880 -111.4310 -112.0886 -112.9673 -113.4838 -113.4500 -113.2171 -113.2302 -113.4922 -113.6219 -113.2418 -112.3762 -111.5800 -111.3020 -111.4412 -111.5037 -111.1801 -110.7055 -110.6041 -111.1025 -111.8609 -112.3240 -112.3122 -112.2077 -112.5324 -113.3820 -114.3345 -114.9274 -115.1746 -115.5474 -116.4384 -117.6963 -118.7472 -119.1730 -119.1203 -119.0980 -119.3922 -119.7483 -119.6696 -119.0014 -118.1542 -117.7097 -117.8356 -118.1429 -118.1368 -117.7623 -117.4457 -117.5910 -118.0912 -118.4008 -118.0971 -117.3194 -116.6060 -116.3084 -116.2233 -115.8413 -114.9326 -115.8199 -114.8667 -114.1226 -113.2554 -111.8345 -109.8859 -107.9684 -106.6750 -106.0949 -105.8124 -105.4314 -105.0391 -105.0939
-104.5802 -104.2185 -104.1528 -104.1230 -104.0526 -104.1926 -104.8772 -106.1454 -107.6370 -108.8805 -109.6775 -110.1895 -110.6524 -109.1747 -109.6099 -109.6614 -109.3760 -109.1145 -109.1942 -109.5849 -109.9790 -110.1536 -110.2335 -110.5662 -111.3430 -112.3712 -113.2446 -113.7339 -113.9838 -114.3111 -114.8266 -115.2890 -115.3504 -114.9301 -114.3130 -113.8651 -113.6652 -113.4456 -112.9007 -112.0309 -111.1538 -110.5701 -110.2462 -109.8554 -109.1363 -108.1856 -107.3707 -106.9552 -106.8357 -106.6682 -106.2458 -105.7187 -105.4195 -105.4812 -105.6595 -105.5541 -104.9968 -104.1959 -103.4875 -102.9639 -102.3802 -101.4379 -100.2145 -99.1596 -98.5090 -98.2916 -98.2058 -97.9587 -97.5825 -97.3887 -97.6129 -98.1334 -98.5715 -98.6688 -98.5412 -98.5389 -98.2289 -98.3675 -98.2199 -97.6533 -96.9250 -96.4526 -96.4204 -96.6329 -96.7620 -96.7135 -96.7177 -97.0521 -97.7046 -98.3509 -98.6820 -98.7346 -99.1453 -99.5610 -100.4026 -101.3155 -102.0069 -102.5288 -103.1793 -104.1323 -105.2004 -105.9895 -106.2859 -106.2632 -106.2896 -106.5407 -106.8301 -106.8363 -106.4761 -106.0218 -105.8311 -105.9786 -106.1835 -106.1126 -105.7355 -105.3551 -105.2827 -105.5074 -105.7165 -105.6411 -105.3575 -105.2147 -105.4652 -105.9910 -106.4180 -106.4959 -106.3397 -106.2760 -106.4651 -106.7080 -106.6503 -106.1663 -105.5128 -105.0858 -105.0376 -105.1592 -105.1486 -104.9713 -104.9215 -105.3155 -106.1454 -107.0657 -107.7310 -108.1273 -108.5462 -109.2362 -110.1066 -110.8052 -111.0855 -111.0691 -111.1189 -111.4552 -111.9253 -112.1698 -112.0076 -111.6274 -111.3823 -111.4101 -111.4904 -111.2921 -110.7489 -110.1578 -109.8934 -110.0402 -110.3329 -110.4630 -110.4206 -110.5004 -110.9672 -111.7397 -112.4369 -112.7415 -112.6978 -112.6292 -112.7693 -113.0039 -113.0017 -112.5909 -111.9744 -111.5484 -111.5122 -111.6841 -111.7172 -111.4807 -111.2001 -111.2059 -111.5646 -111.9908 -112.1377 -111.9574 -111.7451 -111.8193 -112.1799 -112.5069 -112.4998 -112.2741 -112.1669 -112.3838 -112.8044 -113.0533 -112.8791 -112.4093 -112.0107 -111.9069 -111.9634 -111.8673 -111.5061 -111.1325 -111.1332 -111.6440 -112.4194 -113.0949 -113.5600 -114.0455 -114.8347 -115.9143 -116.9445 -117.5856 -117.8343 -118.0105 -118.4093 -118.9877 -119.4210 -119.4622 -119.2182 -119.0420 -119.1573 -119.4175 -119.4600 -119.0922 -118.4994 -118.0518 -117.9207 -117.9132 -117.7014 -117.1968 -116.6642 -116.4494 -116.6090 -116.8385 -116.7755 -116.3561 -115.8457 -115.5176 -117.3285 -116.7771 -115.4856 -113.6139 -111.6440 -109.9930 -108.7186 -107.6104 -106.5491 -105.7282 -105.4898 -105.9453 -106.7919
-104.8338 -104.3239 -104.0680 -104.0045 -104.1237 -104.5289 -105.3395 -106.5346 -107.9023 -109.1589 -110.1244 -110.7903 -111.2242 -109.5586 -109.8450 -109.9460 -109.8535 -109.7120 -109.6876 -109.8189 -110.0028 -110.1269 -110.2078 -110.3869 -110.7876 -111.3813 -112.0024 -112.4989 -112.8621 -113.2035 -113.6056 -114.0063 -114.2388 -114.1890 -113.9051 -113.5456 -113.2197 -112.8843 -112.4053 -111.7162 -110.9074 -110.1510 -109.5402 -109.0094 -108.4194 -107.7179 -107.0079 -106.4519 -106.1112 -105.8878 -105.6289 -105.2826 -104.9434 -104.7380 -104.6724 -104.6013 -104.3530 -103.8834 -103.2986 -102.7274 -102.1773 -101.5278 -100.6666 -99.6657 -98.8982 -98.3301 -97.9719 -97.7033 -97.4192 -97.1534 -97.0488 -97.2045 -97.5611 -97.9446 -98.2257 -98.4300 -98.0890 -98.1473 -98.1685 -98.0141 -97.6438 -97.1961 -96.8976 -96.8832 -97.1019 -97.3962 -97.6668 -97.9515 -98.3466 -98.8637 -99.3840 -100.2116 -100.2528 -100.3507 -100.6626 -101.2213 -101.9030 -102.5521 -103.1302 -103.7344 -104.4677 -105.2981 -106.0570 -106.5819 -106.8572 -107.0085 -107.1588 -107.2978 -107.3007 -107.0756 -106.6840 -106.3046 -106.0765 -105.9816 -105.8881 -105.7065 -105.4954 -105.4055 -105.5218 -105.7694 -105.9832 -106.0701 -106.0950 -106.2019 -106.4525 -106.7523 -106.9396 -106.9466 -106.8616 -106.8305 -106.8986 -106.9604 -106.8710 -106.6026 -106.2838 -106.0807 -106.0432 -106.0763 -106.0638 -106.0134 -106.0683 -106.3711 -106.9193 -107.5642 -108.1516 -108.6599 -109.1929 -109.8366 -110.5339 -111.1111 -111.4314 -111.5179 -111.5177 -110.7674 -110.6399 -110.4429 -110.1258 -109.7749 -109.5508 -110.1986 -110.1187 -110.0134 -109.8124 -109.5996 -109.5317 -109.6777 -109.9477 -110.1851 -110.3264 -110.4607 -110.7267 -111.1548 -111.6191 -111.9506 -112.0936 -112.1443 -112.2322 -112.3712 -112.4371 -112.2968 -111.9552 -111.5651 -111.2892 -111.1561 -111.0587 -110.8922 -110.6863 -110.5888 -110.7179 -111.0347 -111.3716 -111.5860 -111.6830 -111.7802 -112.0169 -112.3415 -112.5791 -112.6229 -112.5289 -112.4531 -112.4898 -112.5793 -112.5805 -112.4301 -112.2221 -112.1228 -112.2099 -112.4036 -112.5622 -112.6409 -112.7492 -113.0447 -113.5746 -114.2291 -114.8542 -115.4048 -115.9784 -116.6925 -117.5360 -118.3510 -118.9654 -119.3417 -119.5883 -119.8242 -120.0418 -120.1109 -119.9214 -119.5147 -119.0632 -118.7191 -118.4849 -118.2401 -117.8916 -117.4892 -117.1839 -117.0723 -117.0898 -117.0669 -116.8899 -116.6021 -116.3401 -116.1749 -116.0242 -115.7291 -117.2136 -116.3944 -115.3223 -114.1332 -112.8396 -111.4134 -109.9280 -108.5960 -107.6478 -107.1652 -107.0351 -107.0678 -107.1589
-105.2268 -104.5532 -104.0736 -103.9293 -104.1961 -104.8508 -105.7971 -106.9233 -108.1368 -109.3515 -110.4550 -111.3053 -111.7765 -109.9537 -110.0400 -110.0956 -110.1518 -110.1917 -110.1823 -110.1244 -110.0685 -110.0790 -110.1828 -110.3529 -110.5430 -110.7384 -110.9692 -111.2740 -111.6501 -112.0412 -112.3774 -112.6251 -112.7997 -112.9279 -112.9999 -112.9622 -112.7590 -112.3819 -111.8773 -111.3056 -110.6918 -110.0194 -109.2704 -108.4705 -107.6909 -107.0031 -106.4298 -105.9418 -105.5006 -105.1038 -104.7866 -104.5772 -104.4539 -104.3475 -104.1895 -103.9582 -103.6777 -103.3728 -103.0275 -102.5895 -102.0182 -101.3265 -100.5741 -99.8191 -99.0754 -98.5893 -98.1272 -97.6914 -97.3439 -97.1344 -97.0603 -97.0769 -97.1471 -97.2781 -97.5095 -97.8630 -97.7781 -97.9528 -98.0112 -97.9668 -97.8900 -97.8534 -97.8877 -97.9838 -98.1312 -98.3434 -98.6428 -99.0193 -99.4142 -99.7526 -100.0012 -100.5913 -100.6476 -100.8471 -101.1749 -101.5809 -102.0310 -102.5360 -103.1269 -103.8047 -104.5165 -105.1837 -105.7560 -106.2379 -106.6619 -107.0375 -107.3287 -107.4837 -107.4861 -107.3764 -107.2198 -107.0539 -106.8678 -106.6322 -106.3506 -106.0762 -105.8772 -105.7848 -105.7756 -105.8051 -105.8588 -105.9666 -106.1677 -106.4604 -106.7896 -107.0854 -107.3144 -107.4938 -107.6549 -107.7951 -107.8689 -107.8280 -107.6707 -107.4499 -107.2324 -107.0483 -106.8821 -106.7123 -106.5567 -106.4762 -106.5302 -106.7287 -107.0280 -107.3743 -107.7505 -108.1800 -108.6834 -109.2352 -109.7651 -110.2051 -110.5354 -110.7850 -110.0216 -109.8690 -109.6560 -109.4004 -109.1549 -108.9884 -108.9344 -108.9585 -108.9814 -109.4636 -109.1661 -108.9372 -108.8310 -108.8485 -108.9460 -109.0844 -109.2678 -109.5321 -109.8962 -110.3255 -110.7465 -111.0987 -111.3729 -111.5989 -111.7963 -111.9406 -111.9800 -111.8865 -111.6897 -111.4578 -111.2444 -111.0542 -110.8598 -110.6514 -110.4661 -110.3659 -110.3846 -110.4976 -110.6448 -110.7828 -110.9139 -111.0929 -111.3746 -111.7100 -112.0253 -112.2746 -112.4679 -112.6443 -112.8208 -112.9681 -113.0388 -113.0187 -112.9491 -112.8965 -112.8995 -112.9464 -113.0055 -113.0745 -113.1999 -113.4430 -113.8272 -114.3194 -114.8631 -115.4293 -116.0334 -116.7018 -117.4220 -118.1295 -118.7459 -119.2317 -119.6013 -119.8873 -120.0923 -120.1773 -120.1003 -119.8652 -119.5305 -119.1679 -118.8115 -118.4471 -118.0508 -117.6355 -117.2562 -116.9678 -116.7767 -116.6366 -116.4911 -116.3226 -116.1569 -116.0209 -115.8980 -115.7278 -117.4513 -116.8898 -115.9751 -114.8170 -113.5160 -112.1503 -110.8043 -109.5939 -108.6488 -108.0543 -107.8045 -107.8095 -107.9514
-105.7592 -104.9262 -104.2155 -103.9540 -104.3103 -105.1688 -106.2420 -107.3112 -108.3608 -109.4851 -110.6738 -111.7063 -112.2747 -110.3592 -110.2414 -110.1686 -110.2852 -110.5022 -110.5977 -110.4497 -110.1679 -109.9941 -110.0701 -110.3031 -110.4631 -110.4149 -110.2566 -110.2245 -110.4603 -110.8699 -111.2133 -111.3359 -111.3103 -111.3497 -111.5770 -111.8817 -112.0075 -111.7857 -111.2852 -110.7330 -110.2848 -109.8759 -109.2990 -108.4326 -107.3904 -106.4423 -105.7806 -105.3623 -104.9787 -104.4820 -103.9414 -103.5738 -103.5168 -103.6725 -103.7772 -103.6328 -103.2719 -102.8969 -102.6558 -102.4795 -102.1424 -101.4878 -100.5921 -99.7051 -99.0225 -98.5156 -98.1820 -97.7939 -97.3075 -96.9519 -96.9021 -97.1078 -97.3424 -97.4257 -97.3992 -97.4810 -97.8437 -97.7620 -98.0538 -98.1068 -97.9807 -97.9265 -98.1588 -98.6627 -99.2201 -99.6234 -99.8637 -100.1089 -100.5020 -100.9875 -101.3473 -101.7416 -101.4454 -101.2319 -101.3204 -101.7092 -102.1965 -102.5915 -102.9046 -103.3273 -104.0234 -104.9387 -105.8222 -106.4401 -106.7739 -107.0086 -107.3267 -107.7126 -107.9638 -107.8965 -107.5414 -107.1326 -106.8996 -106.8647 -106.8454 -106.6576 -106.3153 -106.0296 -106.0064 -106.2447 -106.5368 -106.6702 -106.6327 -106.6179 -106.8260 -107.2574 -107.7049 -107.9506 -107.9730 -107.9580 -108.1036 -108.4122 -108.6774 -108.6804 -108.4013 -108.0380 -107.8143 -107.7682 -107.7309 -107.5155 -107.1271 -106.7838 -106.7245 -106.9923 -107.4050 -107.7410 -107.9547 -108.2072 -108.6837 -109.3798 -110.0725 -109.4992 -109.1845 -108.6939 -108.3164 -108.1748 -108.1577 -108.0765 -107.8788 -107.7028 -107.7236 -107.9530 -108.6804 -108.5358 -108.2550 -108.0142 -108.0333 -108.3544 -108.7922 -109.1060 -109.2255 -109.3065 -109.5632 -110.0431 -110.5690 -110.9051 -110.9816 -110.9560 -111.0486 -111.3168 -111.5917 -111.6412 -111.3982 -111.0288 -110.7729 -110.7162 -110.7198 -110.5751 -110.2308 -109.8631 -109.7185 -109.8576 -110.1560 -110.4416 -110.6159 -110.8022 -111.1977 -111.8468 -112.5626 -113.0782 -113.2813 -113.3015 -113.3668 -113.5724 -113.7918 -113.8171 -113.5880 -113.2790 -113.1559 -113.3397 -113.7112 -114.0464 -114.2485 -114.4456 -114.8566 -115.5606 -116.3999 -117.1145 -117.5776 -117.8993 -118.2977 -118.8661 -119.4673 -119.8602 -119.9327 -119.8084 -119.7226 -119.7876 -119.8829 -119.7770 -119.3621 -118.7684 -118.2448 -117.9257 -117.7137 -117.3943 -116.8686 -116.2695 -115.8462 -115.7285 -115.8036 -115.8264 -115.6531 -115.3675 -117.1747 -117.0033 -116.6109 -115.8055 -114.5387 -113.0232 -111.6142 -110.5585 -109.8466 -109.2996 -108.7959 -108.4056 -108.3003
-106.4171 -105.4478 -104.5258 -104.1269 -104.5081 -105.5008 -106.6714 -107.6960 -108.5912 -109.5903 -110.7984 -111.9765 -112.6774 -110.7493 -110.4725 -110.2278 -110.3061 -110.6394 -110.8785 -110.7413 -110.2940 -109.8935 -109.8467 -110.1168 -110.3608 -110.2630 -109.8432 -109.4427 -109.4000 -109.7310 -110.1190 -110.2251 -110.0156 -109.7908 -109.8849 -110.3282 -110.7977 -110.9055 -110.5493 -109.9876 -109.5715 -109.3934 -109.1944 -108.6217 -107.5859 -106.3738 -105.4043 -104.8607 -104.5509 -104.1269 -103.4475 -102.7320 -102.3534 -102.4714 -102.8598 -103.0970 -102.9391 -102.5185 -102.1797 -102.1161 -102.1597 -101.9310 -101.2042 -100.1351 -99.1303 -98.4819 -98.1177 -97.8077 -97.4172 -96.8460 -96.4635 -96.5544 -97.0429 -97.5593 -97.7860 -97.7511 -97.7864 -97.6692 -98.1820 -98.6547 -98.7830 -98.6004 -98.4695 -98.7554 -99.4889 -100.3403 -100.9248 -101.1477 -101.2607 -101.5824 -102.5679 -102.9624 -103.0278 -102.6939 -102.2571 -102.1165 -102.4135 -102.9202 -103.2815 -103.3752 -103.4378 -103.8351 -104.6972 -105.7711 -106.6352 -107.0712 -107.2374 -107.4794 -107.9659 -108.5035 -108.7123 -108.3938 -107.7360 -107.1554 -106.9270 -106.9556 -106.9057 -106.5611 -106.0629 -105.7934 -106.0171 -106.6244 -107.2268 -107.5135 -107.5272 -107.5959 -107.9894 -108.6354 -109.1706 -109.2794 -108.9935 -108.6616 -108.6183 -108.8699 -109.0992 -108.9825 -108.5125 -108.0130 -107.8321 -108.0106 -108.2458 -108.1875 -107.7808 -107.3251 -107.1925 -107.4772 -107.9139 -108.1425 -108.0610 -107.9263 -107.2108 -107.3173 -107.4805 -107.3672 -106.9043 -106.3956 -106.2717 -106.6970 -107.4054 -107.9212 -107.9639 -107.6622 -108.0387 -107.7538 -107.7444 -107.6709 -107.3392 -106.9160 -106.7857 -107.1849 -107.9677 -108.7290 -109.1678 -109.3441 -109.5835 -110.1257 -110.8610 -111.4110 -111.4782 -111.1285 -110.7316 -110.6179 -110.7787 -110.8989 -110.6855 -110.1735 -109.7103 -109.6330 -109.9486 -110.3274 -110.3387 -110.0334 -109.7598 -109.8585 -110.3740 -111.0034 -111.3816 -111.4279 -111.4177 -111.7106 -112.3955 -113.1956 -113.7246 -113.8469 -113.7950 -113.9315 -114.3875 -114.9290 -115.1806 -114.9926 -114.5971 -114.4012 -114.6167 -115.0805 -115.4384 -115.5094 -115.4776 -115.7228 -116.4521 -117.4871 -118.4141 -118.9525 -119.1886 -119.4537 -119.9660 -120.5880 -120.9353 -120.7358 -120.0919 -119.3936 -118.9641 -118.7791 -118.5256 -117.9417 -117.1043 -116.3835 -116.1054 -116.2482 -116.4631 -116.4026 -116.0392 -115.6704 -115.6070 -115.8493 -118.0651 -117.7274 -116.6796 -115.2921 -114.0282 -113.0829 -112.2974 -111.4153 -110.4198 -109.6104 -109.3393 -109.6577 -110.2182
-107.1738 -106.1079 -105.0191 -104.4827 -104.8273 -105.8697 -107.0890 -108.0759 -108.8403 -109.6981 -110.8586 -112.1156 -112.9477 -111.0787 -110.7232 -110.3164 -110.2806 -110.6387 -111.0035 -110.9524 -110.4324 -109.8168 -109.5575 -109.7622 -110.0941 -110.0891 -109.5939 -108.9137 -108.5310 -108.6600 -109.0541 -109.2465 -108.9970 -108.5218 -108.2904 -108.5787 -109.1981 -109.6553 -109.5942 -109.1062 -108.6192 -108.4733 -108.5836 -108.5104 -107.8722 -106.7136 -105.4829 -104.6385 -104.2518 -103.9769 -103.4119 -102.5084 -101.6411 -101.2696 -101.5083 -102.0088 -102.2660 -102.0620 -101.6349 -101.4155 -101.5863 -101.8779 -101.8007 -101.0940 -99.9726 -98.9394 -98.3378 -98.0629 -97.6998 -97.2463 -96.5448 -96.0565 -96.1635 -96.8094 -97.5513 -97.9652 -98.0278 -98.1153 -98.0727 -98.8272 -99.6176 -100.0097 -99.9291 -99.7431 -99.9282 -100.6310 -101.5317 -102.1389 -102.2394 -102.5288 -102.4299 -102.8066 -103.4309 -103.8260 -103.7149 -103.2832 -103.0088 -103.2206 -103.7996 -104.3032 -104.3945 -104.1720 -104.0868 -104.5242 -105.4413 -106.4002 -106.9647 -107.0899 -107.1383 -107.5108 -108.2413 -108.9400 -109.1404 -108.7279 -108.0466 -107.5871 -107.5459 -107.6704 -107.5322 -106.9675 -106.2686 -105.9407 -106.2510 -106.9904 -107.6705 -107.9707 -108.0168 -108.2299 -108.8933 -109.8459 -110.5958 -110.7506 -110.3629 -109.8681 -109.6746 -109.7904 -109.8361 -109.4297 -108.5777 -107.7025 -107.2765 -107.4034 -107.7398 -107.8279 -107.5271 -107.1403 -107.1160 -107.6102 -108.3208 -108.7530 -107.5493 -106.5646 -105.6460 -105.1544 -105.0331 -104.9525 -104.7052 -104.4583 -104.6081 -105.3714 -106.5085 -107.4583 -107.7825 -107.9811 -107.3673 -107.1711 -107.4073 -107.6902 -107.6111 -107.1404 -106.6729 -106.6731 -107.2509 -108.0647 -108.6416 -108.8123 -108.8530 -109.2006 -110.0119 -110.9835 -111.6041 -111.6067 -111.1975 -110.8495 -110.8560 -111.0644 -111.0395 -110.5013 -109.6170 -108.7393 -108.4737 -108.7706 -109.2046 -109.3882 -109.3356 -109.4370 -110.0664 -111.1968 -112.3856 -113.1494 -113.3792 -113.4092 -113.6776 -114.3005 -114.9592 -115.2071 -114.9059 -114.3784 -114.1322 -114.4093 -114.9839 -115.3945 -115.3908 -115.1756 -115.2122 -115.7819 -116.7064 -117.5003 -117.8106 -117.7330 -117.7084 -118.0984 -118.8387 -119.4957 -119.6728 -119.3831 -119.0370 -119.0556 -119.4727 -119.8992 -119.8837 -119.3317 -118.5899 -118.1187 -118.0605 -118.1127 -117.8230 -117.0309 -116.0385 -115.3487 -115.2152 -115.4236 -115.5084 -115.1987 -116.6717 -116.2094 -115.9857 -115.8894 -115.5180 -114.6006 -113.3111 -112.1678 -111.6028 -111.5968 -111.7173 -111.5208 -110.9432
-107.9920 -106.8812 -105.6904 -105.0377 -105.2961 -106.3004 -107.5057 -108.4523 -109.1167 -109.8365 -110.8922 -112.1429 -113.0635 -111.2951 -110.9522 -110.4417 -110.2623 -110.5552 -110.9835 -111.0489 -110.5553 -109.7949 -109.2859 -109.3025 -109.6260 -109.7466 -109.3314 -108.5317 -107.8493 -107.6844 -107.9775 -108.2733 -108.1456 -107.5950 -107.0534 -106.9903 -107.4804 -108.1258 -108.4061 -108.1352 -107.6096 -107.3145 -107.4579 -107.7621 -107.7041 -106.9884 -105.8194 -104.7268 -104.1008 -103.8625 -103.5674 -102.8449 -101.7693 -100.8190 -100.4595 -100.7287 -101.2022 -101.3706 -101.0842 -100.6615 -100.5630 -100.9351 -101.4413 -101.5410 -100.9635 -99.9452 -99.0161 -98.5298 -98.3657 -98.0747 -97.4891 -96.6890 -96.0564 -96.0455 -96.6618 -97.4694 -97.9916 -98.1382 -98.2697 -98.3307 -99.3071 -100.4633 -101.2738 -101.5104 -101.4376 -101.5597 -102.1503 -102.9951 -104.0127 -103.8823 -103.3283 -102.8651 -102.9128 -103.4306 -103.9678 -104.0858 -103.7637 -103.4188 -103.5224 -104.1647 -104.9664 -105.4203 -105.3499 -105.0681 -105.0887 -105.6569 -106.5246 -107.1772 -107.3025 -107.0730 -106.9824 -107.3866 -108.1683 -108.8335 -108.9520 -108.5419 -108.6571 -108.7083 -109.1359 -109.5201 -109.3907 -108.6745 -107.3213 -107.0268 -107.3552 -108.0324 -108.5490 -108.6296 -108.4800 -108.5846 -109.2419 -110.2620 -111.1079 -111.3515 -111.0334 -110.5986 -110.4712 -110.6581 -110.7454 -110.2914 -109.2549 -108.0656 -107.2703 -107.0726 -107.1858 -107.1279 -106.6872 -106.1301 -105.9599 -105.6793 -106.0712 -106.1606 -105.5923 -104.5501 -103.6358 -103.3874 -103.8540 -104.5960 -105.0934 -105.1862 -105.1560 -105.3932 -105.9777 -107.1043 -107.0072 -106.4676 -105.8033 -105.5337 -105.9105 -106.6843 -107.3236 -107.4860 -107.3138 -107.2848 -107.7573 -108.6267 -109.4088 -109.6735 -109.4337 -109.1322 -109.2382 -109.8212 -110.4904 -110.7548 -110.4726 -109.9810 -109.7856 -110.0001 -110.3502 -110.4619 -110.0615 -109.3689 -108.9061 -109.0311 -109.6227 -110.2031 -110.3857 -110.2360 -110.2156 -110.7578 -111.8634 -113.0850 -113.9151 -114.2243 -114.3510 -114.7628 -115.6017 -116.5314 -117.0293 -116.8571 -116.2810 -115.8411 -115.8785 -116.2519 -116.4993 -116.2942 -115.7758 -115.4483 -115.7379 -116.6114 -117.6034 -118.2270 -118.3947 -118.4661 -118.8818 -119.7220 -120.5971 -120.9733 -120.6387 -119.8859 -119.2452 -119.0118 -118.9986 -118.7375 -117.9433 -116.8113 -115.8745 -115.5466 -115.7665 -116.0672 -116.0059 -115.5613 -115.1370 -115.1695 -117.7011 -118.1445 -117.8676 -116.7623 -115.2438 -113.9358 -113.1841 -112.8319 -112.4460 -111.7763 -111.0178 -110.6327 -110.8944
-108.8278 -107.7301 -106.5151 -105.7863 -105.9279 -106.8147 -107.9372 -108.8303 -109.4262 -110.0284 -110.9407 -112.0958 -113.0276 -111.3563 -111.0996 -110.5722 -110.2722 -110.4401 -110.8493 -111.0123 -110.6205 -109.8244 -109.1063 -108.8567 -109.0324 -109.1993 -108.9227 -108.1580 -107.2961 -106.8220 -106.8907 -107.1972 -107.2551 -106.8360 -106.1781 -105.7774 -105.9472 -106.5359 -107.0533 -107.0948 -106.6852 -106.2386 -106.1712 -106.5126 -106.8628 -106.7346 -105.9795 -104.9179 -104.0608 -103.6679 -103.5360 -103.2032 -102.3859 -101.2583 -100.3230 -99.9861 -100.2111 -100.5594 -100.5788 -100.1957 -99.7630 -99.7222 -100.1832 -100.7966 -101.0361 -100.6423 -99.8359 -99.1139 -98.8093 -98.8084 -98.6737 -98.0907 -97.3363 -96.6435 -96.4904 -96.9593 -97.6880 -98.2072 -98.3639 -98.4531 -98.9417 -99.5352 -100.8902 -102.0611 -102.6904 -102.8785 -103.5112 -103.9622 -104.7012 -105.2974 -105.3273 -104.7644 -104.0245 -103.6224 -103.7445 -104.1131 -104.2612 -103.9709 -103.4843 -103.2984 -103.7259 -104.6122 -105.4619 -105.8629 -105.8338 -105.7872 -106.1438 -106.9419 -107.7899 -108.2061 -108.0425 -107.6172 -107.4362 -107.7511 -108.3448 -109.4582 -109.6490 -109.4474 -109.2541 -109.4019 -109.8403 -110.1778 -110.0472 -108.9471 -108.5535 -108.5368 -109.0470 -109.7730 -110.2187 -110.1430 -109.7722 -109.5963 -109.9287 -110.6209 -111.1862 -111.2218 -110.7555 -110.2100 -110.0168 -110.2251 -110.4537 -110.2302 -109.4160 -108.3409 -107.5257 -107.2402 -107.2869 -107.2011 -106.6885 -105.0918 -103.9728 -103.2716 -102.9881 -102.7834 -102.3520 -101.7727 -101.5045 -102.0085 -103.3179 -104.9389 -106.1839 -106.6662 -106.5432 -106.8775 -106.6445 -106.7436 -106.7414 -106.2912 -105.4752 -104.7647 -104.6305 -105.1463 -105.9366 -106.5130 -106.7012 -106.7775 -107.1976 -108.1589 -109.3892 -110.3522 -110.6907 -110.5156 -110.2873 -110.3955 -110.8117 -111.1234 -110.7002 -109.7493 -108.7225 -108.1420 -108.1985 -108.6114 -108.9016 -108.8313 -108.6200 -108.7443 -109.5008 -110.7215 -111.8969 -112.5997 -112.8353 -113.0096 -113.5444 -114.4850 -115.4477 -115.9560 -115.8647 -115.4959 -115.3628 -115.7270 -116.3800 -116.8421 -116.8009 -116.3979 -116.1093 -116.3258 -117.0054 -117.7087 -117.9854 -117.7695 -117.4332 -117.4517 -117.9767 -118.6991 -119.1214 -118.9982 -118.5528 -118.2765 -118.4896 -119.0528 -119.4865 -119.3916 -118.7988 -118.1363 -117.8457 -117.9883 -118.1918 -117.9865 -117.2310 -116.2497 -115.5592 -115.4252 -115.6429 -115.7342 -117.3844 -116.5617 -115.6281 -115.0305 -114.8106 -114.6239 -114.1092 -113.2690 -112.5123 -112.3131 -112.7836 -113.5410 -113.9908
-109.6347 -108.6083 -107.4513 -106.7014 -106.7182 -107.4266 -108.4016 -109.2192 -109.7730 -110.2900 -111.0439 -112.0259 -112.8707 -111.2457 -111.1080 -110.6494 -110.2923 -110.3214 -110.6363 -110.8385 -110.5777 -109.8580 -109.0398 -108.5343 -108.4558 -108.5300 -108.3392 -107.6908 -106.7920 -106.0794 -105.8499 -106.0124 -106.1730 -105.9811 -105.4363 -104.8903 -104.7433 -105.0949 -105.6518 -105.9724 -105.8361 -105.4202 -105.1320 -105.2414 -105.6337 -105.8956 -105.6623 -104.9267 -104.0441 -103.4291 -103.2061 -103.1152 -102.7532 -101.9414 -100.9002 -100.0792 -99.7867 -99.9378 -100.1378 -100.0262 -99.5859 -99.1497 -99.0992 -99.5174 -100.0966 -100.3830 -100.1488 -99.5725 -99.0733 -98.9449 -99.1042 -99.1741 -98.8267 -98.2092 -97.6347 -97.4478 -97.7910 -98.4119 -98.9021 -99.0640 -99.0894 -99.3925 -100.2432 -101.5161 -102.7748 -103.6189 -103.9973 -104.2200 -104.6594 -105.4037 -106.1612 -106.5020 -106.2276 -105.5502 -104.9263 -104.6863 -104.7789 -104.8479 -104.5726 -103.9763 -103.4320 -103.3611 -103.8810 -104.7079 -105.3961 -105.7097 -105.8064 -106.0761 -106.7769 -107.7841 -108.6719 -109.0592 -108.9223 -108.6065 -109.2066 -109.9072 -110.7818 -111.3294 -111.2485 -110.6686 -110.0290 -109.7154 -109.7676 -109.9032 -109.3761 -109.2888 -109.1877 -109.4573 -110.1885 -111.0797 -111.6762 -111.7423 -111.4465 -111.2005 -111.2931 -111.6352 -111.8355 -111.5425 -110.7567 -109.8414 -109.2239 -109.0417 -109.0400 -108.8069 -108.1429 -107.2445 -106.5441 -106.3428 -106.5545 -105.9854 -105.3185 -104.0910 -102.6888 -101.6244 -101.1693 -101.2081 -101.4185 -101.5988 -101.8457 -102.4262 -103.4657 -104.7407 -105.7805 -106.7593 -106.3189 -105.7826 -105.5629 -105.7869 -106.1927 -106.3628 -106.0943 -105.5842 -105.2702 -105.4630 -106.0869 -106.7518 -107.0934 -107.0876 -107.0668 -107.4239 -108.2607 -109.2838 -110.0389 -110.2841 -110.0664 -109.7597 -109.8229 -110.1757 -110.4329 -110.2451 -109.6138 -108.9074 -108.5650 -108.7401 -109.1923 -109.5172 -109.5149 -109.3763 -109.5262 -110.2564 -111.4660 -112.7329 -113.6561 -114.1739 -114.5860 -115.2618 -116.2900 -117.3740 -118.0651 -118.1350 -117.7663 -117.3968 -117.3528 -117.5862 -117.7408 -117.4897 -116.8479 -116.1899 -115.9528 -116.2801 -116.9118 -117.4141 -117.5509 -117.4754 -117.5793 -118.1289 -119.0073 -119.7856 -120.0652 -119.7980 -119.3095 -119.0071 -119.0259 -119.1183 -118.8818 -118.1273 -117.0686 -116.1661 -115.7583 -115.7966 -115.9098 -115.7413 -115.2659 -114.8130 -116.7741 -117.0831 -117.3365 -117.1370 -116.3248 -115.1583 -114.1480 -113.6756 -113.7175 -113.9019 -113.8433 -113.4638 -113.0259
-110.3682 -109.4652 -108.4439 -107.7357 -107.6424 -108.1379 -108.9141 -109.6307 -110.1601 -110.6295 -111.2341 -111.9906 -112.6494 -110.9826 -110.9437 -110.6094 -110.2739 -110.1948 -110.3701 -110.5350 -110.3808 -109.8133 -109.0336 -108.3739 -108.0255 -107.8872 -107.6601 -107.1102 -106.2762 -105.4495 -104.9414 -104.8326 -104.9143 -104.8702 -104.5455 -104.0784 -103.7823 -103.8784 -104.3030 -104.7509 -104.9192 -104.7483 -104.4576 -104.3479 -104.5360 -104.8458 -104.9469 -104.6263 -103.9640 -103.2681 -102.8207 -102.6504 -102.5191 -102.1355 -101.4138 -100.5612 -99.9182 -99.6862 -99.7688 -99.8594 -99.7017 -99.3038 -98.9266 -98.8573 -99.1579 -99.6005 -99.8456 -99.7142 -99.3275 -98.9974 -98.9614 -99.1843 -99.3934 -99.3174 -98.9298 -98.6205 -98.5406 -98.8522 -99.4192 -99.9369 -100.1997 -100.2824 -100.4807 -101.0613 -102.0302 -103.1144 -103.9730 -104.4611 -104.7281 -105.0683 -105.6520 -106.3629 -106.8816 -106.9444 -106.5624 -106.0175 -105.6378 -105.5406 -105.5569 -105.3999 -104.9328 -104.3115 -103.8788 -103.8980 -104.3470 -104.9461 -105.3927 -105.6098 -105.7967 -106.2436 -107.0650 -108.0778 -108.9290 -109.3665 -110.3494 -110.8799 -111.6763 -112.6409 -113.3817 -113.4858 -112.8413 -111.7456 -110.7097 -110.1129 -109.9786 -109.7306 -109.8656 -109.7767 -109.7166 -109.9762 -110.6272 -111.4435 -112.0677 -112.2851 -112.1777 -112.0305 -112.0714 -112.2635 -112.3264 -111.9685 -111.1365 -110.0721 -109.1283 -108.4971 -108.0763 -107.5841 -106.8245 -105.8778 -105.0560 -104.6580 -103.5267 -103.1668 -102.5745 -101.6969 -100.8152 -100.3696 -100.6413 -101.5401 -102.6664 -103.5934 -104.1453 -104.4541 -104.7698 -105.6930 -105.8501 -105.8166 -105.4300 -104.8221 -104.3288 -104.2275 -104.5216 -104.9509 -105.2193 -105.2467 -105.2350 -105.4922 -106.1634 -107.0937 -107.9414 -108.4448 -108.6235 -108.7437 -109.0800 -109.4012 -109.7504 -109.8219 -109.4920 -108.9373 -108.5016 -108.4249 -108.6600 -108.9296 -108.9750 -108.7870 -108.6239 -108.8021 -109.4331 -110.3287 -111.1527 -111.6936 -112.0294 -112.4471 -113.1859 -114.2197 -115.2624 -115.9925 -116.3093 -116.4060 -116.6004 -117.0626 -117.6716 -118.1172 -118.1651 -117.8590 -117.4933 -117.3753 -117.5784 -117.8911 -118.0044 -117.7803 -117.3750 -117.1139 -117.2228 -117.6399 -118.0674 -118.2181 -118.0517 -117.8024 -117.7749 -118.0810 -118.5372 -118.8111 -118.6928 -118.2658 -117.8332 -117.6621 -117.7614 -117.8769 -117.7110 -117.1797 -116.4921 -115.9855 -115.8526 -115.9896 -118.0908 -117.7435 -116.8653 -115.7962 -114.9242 -114.4207 -114.1663 -113.9171 -113.5608 -113.2399 -113.2315 -113.6851 -114.4405
-110.9898 -110.2508 -109.4300 -108.8262 -108.6572 -108.9352 -109.4834 -110.0759 -110.5893 -111.0472 -111.5318 -112.0437 -112.4368 -110.6231 -110.6132 -110.4085 -110.1584 -110.0294 -110.0594 -110.1171 -110.0015 -109.5990 -108.9733 -108.3139 -107.7853 -107.4002 -107.0193 -106.4771 -105.7312 -104.9119 -104.2322 -103.8288 -103.6642 -103.5674 -103.3805 -103.0905 -102.8396 -102.8051 -103.0469 -103.4475 -103.7937 -103.9346 -103.8878 -103.8091 -103.8507 -104.0245 -104.1824 -104.1302 -103.7830 -103.2350 -102.6883 -102.2958 -102.0485 -101.7951 -101.3797 -100.7825 -100.1495 -99.6855 -99.4971 -99.5123 -99.5425 -99.4365 -99.1999 -98.9853 -98.9601 -99.1608 -99.4542 -99.6358 -99.5890 -99.3737 -99.1747 -99.1515 -99.3122 -99.5136 -99.5876 -99.4905 -99.3860 -99.4684 -99.7921 -100.3173 -100.8725 -101.3005 -101.5901 -101.8849 -102.3631 -103.0846 -103.9317 -104.6914 -105.2132 -105.5152 -105.7537 -106.0809 -106.5092 -106.8920 -107.0383 -106.8679 -106.4812 -106.0867 -105.8443 -105.7520 -105.6664 -105.4398 -105.0605 -104.6811 -104.5113 -104.6597 -105.0545 -105.5053 -105.8574 -106.1112 -106.4112 -106.9145 -107.6460 -109.0723 -110.2455 -111.3365 -112.3129 -113.1864 -113.9121 -114.3471 -114.3224 -113.7803 -112.8643 -111.8816 -111.1499 -110.4580 -110.6759 -110.9087 -111.0019 -110.9466 -110.8875 -111.0021 -111.3486 -111.8071 -112.1625 -112.2628 -112.1254 -111.9059 -111.7562 -111.6890 -111.5593 -111.1797 -110.4752 -109.5521 -108.6248 -107.8587 -107.2569 -106.6812 -105.9883 -105.1703 -103.3900 -102.2989 -101.4488 -100.8462 -100.4144 -100.1153 -100.0283 -100.3077 -101.0449 -102.1477 -103.3428 -104.3143 -105.6062 -105.4978 -105.3482 -105.3125 -105.3963 -105.4576 -105.3332 -104.9867 -104.5564 -104.2625 -104.2477 -104.4794 -104.7915 -105.0311 -105.1890 -105.4077 -105.8607 -106.6001 -107.4994 -108.1673 -108.5113 -108.6464 -108.7326 -108.9257 -109.2420 -109.5402 -109.6368 -109.4604 -109.1201 -108.8310 -108.7571 -108.8982 -109.1108 -109.2454 -109.2860 -109.3779 -109.7188 -110.4019 -111.3379 -112.3192 -113.1742 -113.8880 -114.5907 -115.4262 -116.4080 -117.3830 -118.1323 -118.5306 -118.6338 -118.6260 -118.6679 -118.7717 -118.8020 -118.6029 -118.1450 -117.5727 -117.1104 -116.9032 -116.9196 -116.9941 -116.9742 -116.8511 -116.7674 -116.8960 -117.2893 -117.8216 -118.2738 -118.4922 -118.4944 -118.4363 -118.4707 -118.6111 -118.7148 -118.5976 -118.1881 -117.5952 -117.0328 -116.6627 -116.4813 -116.3413 -116.0898 -115.7073 -117.3348 -116.9975 -116.6782 -116.3519 -115.9085 -115.2931 -114.6087 -114.0870 -113.9420 -114.2169 -114.7437 -115.2491 -115.5218
-111.4711 -110.9211 -110.3453 -109.9005 -109.7035 -109.7887 -110.1065 -110.5613 -111.0596 -111.5355 -111.9421 -112.2246 -112.3084 -110.2507 -110.1677 -110.0433 -109.9027 -109.7839 -109.6972 -109.6050 -109.4401 -109.1488 -108.7251 -108.2107 -107.6608 -107.1033 -106.5236 -105.8868 -105.1789 -104.4341 -103.7257 -103.1262 -102.6673 -102.3302 -102.0726 -101.8707 -101.7417 -101.7298 -101.8651 -102.1305 -102.4608 -102.7774 -103.0313 -103.2226 -103.3808 -103.5242 -103.6308 -103.6447 -103.5130 -103.2261 -102.8270 -102.3851 -101.9515 -101.5331 -101.1023 -100.6364 -100.1512 -99.7045 -99.3628 -99.1592 -99.0729 -99.0484 -99.0377 -99.0328 -99.0645 -99.1678 -99.3429 -99.5440 -99.7048 -99.7823 -99.7853 -99.7645 -99.7740 -99.8332 -99.9201 -99.9995 -100.0640 -100.1544 -100.3541 -100.6628 -101.0732 -101.5493 -102.0415 -102.5272 -103.0262 -103.5788 -104.2040 -104.8718 -105.5118 -106.0525 -106.4621 -106.7579 -106.9808 -107.1527 -107.2543 -107.2390 -107.0734 -106.7723 -106.3989 -106.0314 -105.7198 -105.4660 -105.2431 -105.0354 -104.8682 -104.8015 -104.8926 -105.1562 -105.5533 -106.0176 -106.4996 -106.9930 -107.5246 -108.7740 -109.9389 -111.2802 -112.6396 -113.8049 -114.5827 -114.8710 -114.6936 -114.1782 -113.4946 -112.7970 -112.1966 -111.3660 -111.3460 -111.4036 -111.5344 -111.6921 -111.8268 -111.9226 -112.0049 -112.1120 -112.2536 -112.3902 -112.4504 -112.3736 -112.1455 -111.7993 -111.3828 -110.9174 -110.3832 -109.7402 -108.9705 -108.1062 -107.2219 -106.3949 -105.6648 -105.0230 -103.6853 -102.7333 -101.7755 -100.9309 -100.3329 -100.0693 -100.1492 -100.5128 -101.0698 -101.7369 -102.4497 -103.1510 -104.3253 -104.5661 -104.7086 -104.7339 -104.6760 -104.5966 -104.5412 -104.5123 -104.4792 -104.4159 -104.3368 -104.2994 -104.3722 -104.5918 -104.9411 -105.3670 -105.8214 -106.2103 -106.4758 -106.8002 -107.1881 -107.5960 -107.9566 -108.2232 -108.3990 -108.5285 -108.6602 -108.8088 -108.9473 -109.0358 -109.0634 -109.0686 -109.1234 -109.2901 -109.5861 -109.9816 -110.4323 -110.9199 -111.4681 -112.1204 -112.8989 -113.7744 -114.6750 -115.5239 -116.2807 -116.9529 -117.5698 -118.1419 -118.6374 -118.9962 -119.1710 -119.1627 -119.0230 -118.8220 -118.6045 -118.3705 -118.0930 -117.7581 -117.3949 -117.0702 -116.8509 -116.7631 -116.7796 -116.8450 -116.9189 -117.0025 -117.1297 -117.3287 -117.5863 -117.8444 -118.0318 -118.1078 -118.0837 -118.0069 -117.9190 -117.8231 -117.6847 -117.4655 -117.1635 -116.8254 -116.5225 -116.3064 -118.1786 -117.9310 -117.4121 -116.6777 -115.8553 -115.1019 -114.5442 -114.2397 -114.1789 -114.3174 -114.6095 -115.0138 -115.4711
-111.7963 -111.4418 -111.1308 -110.8837 -110.7118 -110.6533 -110.7669 -111.0855 -111.5658 -112.0787 -112.4530 -112.5511 -112.3262 -109.9592 -109.6956 -109.5596 -109.5010 -109.4286 -109.2715 -109.0220 -108.7292 -108.4490 -108.1895 -107.8957 -107.4848 -106.9073 -106.1859 -105.4045 -104.6540 -103.9763 -103.3492 -102.7218 -102.0727 -101.4451 -100.9305 -100.6127 -100.5131 -100.5802 -100.7282 -100.8979 -101.0916 -101.3566 -101.7309 -102.1935 -102.6585 -103.0197 -103.2113 -103.2415 -103.1727 -103.0650 -102.9264 -102.7088 -102.3511 -101.8372 -101.2236 -100.6133 -100.0963 -99.6999 -99.3860 -99.0957 -98.8077 -98.5629 -98.4375 -98.4850 -98.6907 -98.9754 -99.2450 -99.4500 -99.6103 -99.7866 -100.0229 -100.3037 -100.5603 -100.7213 -100.7694 -100.7603 -100.7892 -100.9301 -101.1923 -101.5274 -101.8368 -102.0923 -102.3543 -102.7071 -103.2019 -103.8172 -104.4714 -105.0768 -105.5952 -106.0528 -106.5042 -106.9742 -107.4229 -107.7625 -107.9136 -107.8588 -107.6539 -107.3874 -107.1202 -106.8512 -106.5340 -106.1314 -105.6650 -105.2203 -104.9025 -104.7750 -104.8272 -104.9944 -105.2152 -105.4799 -105.8356 -106.3418 -107.0128 -108.4191 -109.7072 -111.0945 -112.4706 -113.7080 -114.6656 -115.2179 -115.3039 -114.9635 -114.3371 -113.6208 -113.0006 -112.2111 -112.2288 -112.2862 -112.3203 -112.2855 -112.1965 -112.1208 -112.1288 -112.2369 -112.3890 -112.4904 -112.4689 -112.3172 -112.0857 -111.8311 -111.5629 -111.2284 -110.7486 -110.0791 -109.2483 -108.3447 -107.4622 -106.6445 -105.8707 -105.0920 -104.2894 -102.6962 -101.6868 -100.8632 -100.3088 -100.0362 -100.0059 -100.1699 -100.5031 -100.9980 -101.6311 -102.9584 -103.3800 -103.7320 -103.9560 -104.0670 -104.1324 -104.2153 -104.3252 -104.4136 -104.4191 -104.3245 -104.1831 -104.0927 -104.1353 -104.3282 -104.6232 -104.9221 -105.0399 -105.1587 -105.3545 -105.6800 -106.1211 -106.6004 -107.0283 -107.3616 -107.6263 -107.8893 -108.1992 -108.5442 -108.8594 -109.0775 -109.1847 -109.2388 -109.3348 -109.5441 -109.8716 -110.2650 -110.6649 -111.0596 -111.4994 -112.0603 -112.7835 -113.6379 -114.5334 -115.3761 -116.1235 -116.7986 -117.4529 -118.1085 -118.7235 -119.2099 -119.4896 -119.5479 -119.4423 -119.2618 -119.0662 -118.8521 -118.5708 -118.1831 -117.7086 -117.2295 -116.8463 -116.6167 -116.5246 -116.5016 -116.4844 -116.4640 -116.4890 -116.6211 -116.8776 -117.2053 -117.5077 -117.7046 -117.7806 -117.7855 -117.7875 -117.8160 -117.8366 -117.7794 -117.5968 -117.3080 -116.9933 -116.7434 -118.6005 -118.3680 -117.8697 -117.1212 -116.2291 -115.3692 -114.7182 -114.3811 -114.3590 -114.5750 -114.9320 -115.3581 -115.8078
-111.9632 -111.7920 -111.7387 -111.7067 -111.6096 -111.4730 -111.4339 -111.6355 -112.0961 -112.6539 -113.0368 -113.0137 -112.5241 -109.8306 -109.3024 -109.0454 -108.9949 -108.9641 -108.7779 -108.3951 -107.9284 -107.5486 -107.3453 -107.2483 -107.0692 -106.6336 -105.9061 -105.0168 -104.1691 -103.4979 -102.9816 -102.4745 -101.8323 -101.0380 -100.2338 -99.6323 -99.3741 -99.4343 -99.6473 -99.8311 -99.9179 -99.9958 -100.2292 -100.7196 -101.4098 -102.1043 -102.5917 -102.7803 -102.7473 -102.6662 -102.6671 -102.7347 -102.7188 -102.4507 -101.8777 -101.1161 -100.3817 -99.8497 -99.5439 -99.3394 -99.0725 -98.6777 -98.2477 -97.9722 -98.0007 -98.3299 -98.8016 -99.2107 -99.4464 -99.5617 -99.7205 -100.0638 -100.5941 -101.1648 -101.5835 -101.7525 -101.7425 -101.7449 -101.9372 -102.3610 -102.9014 -103.3830 -103.6024 -103.6749 -103.7898 -104.1190 -104.6965 -105.3922 -106.0038 -106.3997 -106.6061 -106.7761 -107.0631 -107.4948 -107.9411 -108.2014 -108.1472 -107.8147 -107.3795 -107.0322 -106.8464 -106.7377 -106.5418 -106.1544 -105.6269 -105.1469 -104.9158 -105.0143 -105.3534 -105.7477 -106.0559 -106.2832 -106.5718 -107.0854 -108.8419 -110.3810 -111.9539 -113.2489 -114.0789 -114.4527 -114.5264 -114.4742 -114.3769 -114.2064 -113.9089 -113.1846 -112.9829 -112.8699 -112.9503 -113.1627 -113.3328 -113.3080 -113.0738 -112.7654 -112.5653 -112.5632 -112.6833 -112.7317 -112.5311 -112.0434 -111.3895 -110.7537 -110.2430 -109.8076 -109.2806 -108.5086 -107.4755 -106.3281 -105.2833 -104.4847 -103.9149 -103.4262 -102.1263 -101.2396 -100.4115 -99.8778 -99.7888 -100.1063 -100.6275 -101.1184 -102.0599 -102.1015 -102.2363 -102.5735 -103.0693 -103.5460 -103.8139 -103.8049 -103.6208 -103.4594 -103.4735 -103.6666 -103.9022 -104.0187 -103.9631 -103.8389 -103.7009 -103.8122 -104.1796 -104.6574 -105.0597 -105.2982 -105.4442 -105.6696 -106.1101 -106.7546 -107.4418 -107.9698 -108.2357 -108.3056 -108.3612 -108.5644 -108.9404 -109.3650 -109.6663 -109.7636 -109.7403 -109.7958 -110.1102 -110.7222 -111.5084 -112.2796 -112.9215 -113.4750 -114.0976 -114.9334 -115.9896 -117.1120 -118.0783 -118.7413 -119.1178 -119.3577 -119.6183 -119.9369 -120.1979 -120.2187 -119.8904 -119.2697 -118.5523 -117.9470 -117.5427 -117.2655 -116.9564 -116.5105 -115.9731 -115.5214 -115.3424 -115.4999 -115.8866 -116.2980 -116.5741 -116.7045 -116.8191 -117.0742 -117.5185 -118.0397 -118.4329 -118.5408 -118.3624 -118.0504 -117.7985 -117.7032 -117.7006 -117.6254 -119.3461 -118.7087 -117.7689 -116.7957 -115.9885 -115.3928 -114.9365 -114.5482 -114.2602 -114.2119 -114.5459 -115.2726 -116.2073
