ncols         200
nrows         65
xllcorner     -500
yllcorner     -135
cellsize      5.000000000000
NODATA_value  -9999
-105.58 -105.50 -105.41 -105.31 -105.22 -105.13 -105.03 -104.93 -104.83 -104.73 -104.63 -104.52 -104.41 -104.29 -104.18 -104.05 -103.93 -103.79 -103.66 -103.51 -103.36 -103.20 -103.03 -102.85 -102.67 -102.47 -102.26 -102.05 -101.82 -101.59 -101.34 -101.09 -100.84 -100.58 -100.31 -100.05 -99.78 -99.52 -99.26 -99.02 -98.78 -98.55 -98.34 -98.14 -97.96 -97.79 -97.64 -97.50 -97.39 -97.28 -97.19 -97.11 -97.04 -96.98 -96.92 -96.87 -96.82 -96.76 -96.71 -96.65 -96.59 -96.52 -96.45 -96.37 -96.29 -96.19 -96.10 -96.00 -95.89 -95.79 -95.68 -95.57 -95.46 -95.35 -95.24 -95.14 -95.05 -94.96 -94.87 -94.80 -94.74 -94.68 -94.64 -94.61 -94.59 -94.59 -94.61 -94.64 -94.68 -94.75 -94.83 -94.93 -95.05 -95.19 -95.36 -95.54 -95.74 -95.97 -96.22 -96.49 -96.78 -97.10 -97.43 -97.79 -98.17 -98.57 -98.99 -99.43 -99.89 -100.36 -100.85 -101.36 -101.88 -102.42 -102.96 -103.52 -104.09 -104.66 -105.24 -105.83 -106.42 -107.01 -107.60 -108.19 -108.78 -109.36 -109.94 -110.51 -111.07 -111.63 -112.16 -112.69 -113.20 -113.68 -114.15 -114.60 -115.01 -115.40 -115.76 -116.08 -116.37 -116.62 -116.82 -116.98 -117.10 -117.16 -117.17 -117.13 -117.03 -116.88 -116.67 -116.41 -116.09 -115.72 -115.30 -114.84 -114.32 -113.77 -113.17 -112.54 -111.89 -111.20 -110.50 -109.78 -109.05 -108.31 -107.57 -106.84 -106.11 -105.39 -104.68 -104.00 -103.33 -102.68 -102.05 -101.45 -100.88 -100.33 -99.80 -99.31 -98.83 -98.39 -97.97 -97.57 -97.20 -96.85 -96.52 -96.21 -95.92 -95.65 -95.39 -95.15 -94.93 -94.72 -94.52 -94.34 -94.17 -94.00 -93.85 -93.71
-105.53 -105.44 -105.35 -105.26 -105.17 -105.07 -104.97 -104.87 -104.77 -104.67 -104.56 -104.45 -104.34 -104.22 -104.10 -103.98 -103.85 -103.72 -103.58 -103.43 -103.28 -103.12 -102.96 -102.78 -102.60 -102.41 -102.21 -102.00 -101.78 -101.56 -101.32 -101.08 -100.83 -100.58 -100.33 -100.08 -99.82 -99.57 -99.32 -99.08 -98.85 -98.62 -98.41 -98.21 -98.03 -97.85 -97.69 -97.55 -97.42 -97.30 -97.19 -97.09 -97.00 -96.92 -96.84 -96.76 -96.69 -96.61 -96.53 -96.45 -96.37 -96.28 -96.19 -96.09 -95.98 -95.87 -95.76 -95.64 -95.52 -95.40 -95.28 -95.16 -95.04 -94.92 -94.80 -94.69 -94.58 -94.48 -94.39 -94.31 -94.24 -94.18 -94.13 -94.09 -94.07 -94.06 -94.06 -94.09 -94.13 -94.18 -94.26 -94.36 -94.47 -94.61 -94.77 -94.95 -95.15 -95.37 -95.62 -95.88 -96.17 -96.49 -96.82 -97.18 -97.55 -97.95 -98.37 -98.81 -99.27 -99.74 -100.23 -100.74 -101.26 -101.80 -102.35 -102.90 -103.47 -104.05 -104.63 -105.22 -105.81 -106.40 -106.99 -107.58 -108.17 -108.76 -109.34 -109.91 -110.47 -111.02 -111.56 -112.08 -112.59 -113.07 -113.54 -113.98 -114.40 -114.78 -115.14 -115.46 -115.75 -115.99 -116.19 -116.35 -116.46 -116.53 -116.54 -116.50 -116.41 -116.26 -116.06 -115.81 -115.50 -115.14 -114.73 -114.27 -113.77 -113.23 -112.65 -112.04 -111.40 -110.74 -110.05 -109.35 -108.64 -107.92 -107.20 -106.49 -105.78 -105.08 -104.39 -103.72 -103.07 -102.44 -101.83 -101.24 -100.68 -100.14 -99.63 -99.14 -98.68 -98.25 -97.83 -97.45 -97.08 -96.74 -96.41 -96.11 -95.83 -95.56 -95.31 -95.08 -94.86 -94.65 -94.46 -94.28 -94.11 -93.94 -93.79 -93.65
-105.48 -105.39 -105.30 -105.20 -105.11 -105.01 -104.91 -104.81 -104.70 -104.60 -104.49 -104.38 -104.26 -104.15 -104.03 -103.90 -103.77 -103.64 -103.50 -103.35 -103.20 -103.04 -102.88 -102.71 -102.53 -102.34 -102.15 -101.94 -101.73 -101.51 -101.29 -101.06 -100.82 -100.58 -100.33 -100.09 -99.84 -99.60 -99.36 -99.12 -98.89 -98.67 -98.46 -98.26 -98.07 -97.89 -97.72 -97.57 -97.42 -97.29 -97.17 -97.05 -96.94 -96.84 -96.74 -96.64 -96.54 -96.44 -96.34 -96.24 -96.14 -96.03 -95.91 -95.80 -95.68 -95.55 -95.42 -95.29 -95.15 -95.02 -94.88 -94.75 -94.62 -94.49 -94.36 -94.24 -94.12 -94.01 -93.91 -93.82 -93.74 -93.67 -93.61 -93.56 -93.53 -93.52 -93.52 -93.53 -93.57 -93.62 -93.69 -93.78 -93.89 -94.02 -94.17 -94.35 -94.54 -94.76 -95.00 -95.27 -95.55 -95.86 -96.19 -96.55 -96.92 -97.32 -97.74 -98.17 -98.63 -99.10 -99.59 -100.10 -100.62 -101.16 -101.70 -102.26 -102.83 -103.41 -103.99 -104.58 -105.17 -105.76 -106.35 -106.95 -107.54 -108.12 -108.70 -109.27 -109.83 -110.38 -110.91 -111.44 -111.94 -112.42 -112.89 -113.32 -113.74 -114.12 -114.47 -114.79 -115.07 -115.31 -115.52 -115.67 -115.79 -115.85 -115.86 -115.83 -115.74 -115.59 -115.40 -115.15 -114.86 -114.51 -114.11 -113.67 -113.18 -112.66 -112.10 -111.50 -110.88 -110.24 -109.57 -108.89 -108.20 -107.51 -106.81 -106.11 -105.42 -104.74 -104.08 -103.42 -102.79 -102.18 -101.58 -101.01 -100.46 -99.94 -99.44 -98.97 -98.52 -98.09 -97.69 -97.31 -96.95 -96.62 -96.30 -96.01 -95.73 -95.47 -95.22 -94.99 -94.78 -94.58 -94.39 -94.21 -94.04 -93.88 -93.74 -93.60
-105.43 -105.34 -105.25 -105.15 -105.05 -104.95 -104.85 -104.75 -104.64 -104.53 -104.42 -104.31 -104.19 -104.07 -103.95 -103.82 -103.69 -103.56 -103.42 -103.27 -103.12 -102.96 -102.80 -102.63 -102.45 -102.27 -102.08 -101.88 -101.67 -101.46 -101.24 -101.02 -100.79 -100.56 -100.32 -100.08 -99.84 -99.60 -99.37 -99.14 -98.91 -98.69 -98.48 -98.28 -98.09 -97.90 -97.73 -97.56 -97.41 -97.26 -97.12 -96.99 -96.86 -96.74 -96.62 -96.50 -96.38 -96.26 -96.15 -96.02 -95.90 -95.77 -95.64 -95.50 -95.37 -95.22 -95.08 -94.93 -94.79 -94.64 -94.49 -94.34 -94.20 -94.06 -93.92 -93.79 -93.66 -93.54 -93.43 -93.33 -93.24 -93.16 -93.10 -93.04 -93.00 -92.98 -92.97 -92.98 -93.01 -93.05 -93.11 -93.20 -93.30 -93.43 -93.57 -93.74 -93.93 -94.15 -94.38 -94.64 -94.93 -95.23 -95.56 -95.91 -96.28 -96.67 -97.09 -97.52 -97.98 -98.45 -98.94 -99.44 -99.96 -100.50 -101.05 -101.60 -102.17 -102.75 -103.33 -103.92 -104.51 -105.10 -105.69 -106.28 -106.87 -107.45 -108.03 -108.60 -109.16 -109.70 -110.24 -110.75 -111.25 -111.73 -112.19 -112.63 -113.04 -113.42 -113.76 -114.08 -114.36 -114.60 -114.80 -114.95 -115.06 -115.13 -115.14 -115.11 -115.02 -114.89 -114.70 -114.46 -114.17 -113.84 -113.45 -113.02 -112.55 -112.05 -111.50 -110.93 -110.33 -109.70 -109.06 -108.40 -107.74 -107.06 -106.39 -105.71 -105.05 -104.39 -103.74 -103.11 -102.49 -101.90 -101.32 -100.77 -100.24 -99.73 -99.24 -98.78 -98.35 -97.93 -97.54 -97.17 -96.82 -96.50 -96.19 -95.90 -95.63 -95.37 -95.13 -94.91 -94.70 -94.50 -94.31 -94.14 -93.98 -93.82 -93.68 -93.54
-105.38 -105.29 -105.19 -105.09 -105.00 -104.89 -104.79 -104.68 -104.58 -104.47 -104.35 -104.24 -104.12 -104.00 -103.87 -103.74 -103.61 -103.48 -103.34 -103.19 -103.04 -102.88 -102.72 -102.55 -102.38 -102.19 -102.01 -101.81 -101.61 -101.40 -101.19 -100.97 -100.75 -100.52 -100.29 -100.06 -99.83 -99.59 -99.36 -99.14 -98.91 -98.70 -98.48 -98.28 -98.08 -97.89 -97.71 -97.54 -97.37 -97.21 -97.06 -96.91 -96.77 -96.63 -96.49 -96.35 -96.22 -96.08 -95.94 -95.80 -95.66 -95.51 -95.36 -95.21 -95.06 -94.90 -94.74 -94.58 -94.42 -94.26 -94.10 -93.94 -93.79 -93.64 -93.49 -93.35 -93.21 -93.08 -92.96 -92.85 -92.75 -92.67 -92.59 -92.53 -92.48 -92.45 -92.43 -92.43 -92.45 -92.49 -92.54 -92.62 -92.72 -92.84 -92.98 -93.14 -93.33 -93.53 -93.76 -94.02 -94.30 -94.60 -94.92 -95.27 -95.63 -96.02 -96.44 -96.87 -97.32 -97.79 -98.27 -98.78 -99.30 -99.83 -100.37 -100.93 -101.50 -102.07 -102.65 -103.24 -103.82 -104.41 -105.00 -105.59 -106.18 -106.76 -107.33 -107.90 -108.46 -109.00 -109.53 -110.04 -110.54 -111.02 -111.47 -111.90 -112.30 -112.68 -113.02 -113.33 -113.61 -113.84 -114.04 -114.20 -114.31 -114.37 -114.39 -114.35 -114.27 -114.14 -113.96 -113.73 -113.45 -113.13 -112.76 -112.35 -111.89 -111.40 -110.88 -110.33 -109.75 -109.14 -108.52 -107.89 -107.25 -106.60 -105.94 -105.29 -104.65 -104.01 -103.39 -102.78 -102.18 -101.61 -101.05 -100.51 -100.00 -99.51 -99.04 -98.59 -98.17 -97.76 -97.38 -97.02 -96.69 -96.37 -96.07 -95.78 -95.52 -95.27 -95.04 -94.82 -94.61 -94.42 -94.24 -94.07 -93.91 -93.76 -93.62 -93.48
-105.33 -105.24 -105.14 -105.04 -104.94 -104.84 -104.73 -104.62 -104.51 -104.40 -104.29 -104.17 -104.05 -103.92 -103.80 -103.67 -103.53 -103.40 -103.25 -103.11 -102.96 -102.80 -102.64 -102.47 -102.29 -102.12 -101.93 -101.74 -101.54 -101.34 -101.13 -100.91 -100.70 -100.47 -100.25 -100.02 -99.80 -99.57 -99.34 -99.12 -98.90 -98.68 -98.47 -98.26 -98.06 -97.86 -97.68 -97.49 -97.32 -97.15 -96.98 -96.82 -96.66 -96.50 -96.35 -96.20 -96.04 -95.89 -95.73 -95.58 -95.42 -95.26 -95.09 -94.93 -94.76 -94.59 -94.41 -94.24 -94.07 -93.90 -93.72 -93.55 -93.39 -93.22 -93.07 -92.91 -92.77 -92.63 -92.50 -92.38 -92.28 -92.18 -92.09 -92.02 -91.97 -91.93 -91.90 -91.90 -91.91 -91.94 -91.98 -92.05 -92.14 -92.25 -92.39 -92.54 -92.72 -92.92 -93.15 -93.40 -93.67 -93.97 -94.28 -94.63 -94.99 -95.38 -95.78 -96.21 -96.66 -97.12 -97.61 -98.11 -98.62 -99.15 -99.69 -100.25 -100.81 -101.38 -101.96 -102.54 -103.13 -103.72 -104.30 -104.89 -105.47 -106.05 -106.62 -107.18 -107.73 -108.27 -108.80 -109.31 -109.80 -110.27 -110.72 -111.14 -111.54 -111.91 -112.25 -112.56 -112.83 -113.06 -113.26 -113.41 -113.52 -113.58 -113.60 -113.57 -113.49 -113.37 -113.20 -112.98 -112.71 -112.40 -112.04 -111.64 -111.21 -110.74 -110.23 -109.70 -109.14 -108.56 -107.97 -107.36 -106.74 -106.11 -105.48 -104.86 -104.24 -103.63 -103.02 -102.43 -101.86 -101.31 -100.77 -100.25 -99.75 -99.28 -98.82 -98.39 -97.98 -97.59 -97.22 -96.87 -96.54 -96.23 -95.94 -95.67 -95.41 -95.17 -94.94 -94.73 -94.53 -94.34 -94.16 -94.00 -93.84 -93.69 -93.55 -93.42
-105.29 -105.19 -105.09 -104.99 -104.88 -104.78 -104.67 -104.56 -104.45 -104.34 -104.22 -104.10 -103.98 -103.85 -103.72 -103.59 -103.46 -103.32 -103.17 -103.02 -102.87 -102.72 -102.55 -102.39 -102.21 -102.03 -101.85 -101.66 -101.47 -101.27 -101.06 -100.85 -100.64 -100.42 -100.20 -99.98 -99.75 -99.53 -99.31 -99.08 -98.86 -98.65 -98.43 -98.22 -98.02 -97.82 -97.62 -97.43 -97.25 -97.07 -96.89 -96.71 -96.54 -96.37 -96.20 -96.03 -95.87 -95.70 -95.53 -95.35 -95.18 -95.00 -94.83 -94.65 -94.46 -94.28 -94.10 -93.91 -93.73 -93.54 -93.36 -93.18 -93.00 -92.83 -92.66 -92.50 -92.34 -92.20 -92.06 -91.93 -91.81 -91.71 -91.61 -91.54 -91.47 -91.42 -91.39 -91.37 -91.38 -91.40 -91.44 -91.50 -91.58 -91.69 -91.81 -91.96 -92.13 -92.33 -92.55 -92.79 -93.05 -93.34 -93.66 -93.99 -94.35 -94.73 -95.13 -95.56 -96.00 -96.46 -96.94 -97.43 -97.95 -98.47 -99.01 -99.56 -100.12 -100.69 -101.26 -101.84 -102.42 -103.01 -103.59 -104.17 -104.75 -105.32 -105.89 -106.45 -107.00 -107.53 -108.05 -108.55 -109.04 -109.51 -109.95 -110.37 -110.76 -111.13 -111.46 -111.76 -112.03 -112.26 -112.45 -112.60 -112.71 -112.77 -112.79 -112.76 -112.69 -112.57 -112.41 -112.20 -111.94 -111.64 -111.30 -110.92 -110.50 -110.05 -109.57 -109.06 -108.52 -107.96 -107.39 -106.81 -106.21 -105.61 -105.01 -104.41 -103.81 -103.22 -102.65 -102.08 -101.53 -100.99 -100.48 -99.98 -99.50 -99.04 -98.60 -98.18 -97.79 -97.41 -97.05 -96.72 -96.40 -96.10 -95.81 -95.55 -95.30 -95.06 -94.84 -94.63 -94.44 -94.26 -94.08 -93.92 -93.77 -93.63 -93.49 -93.36
-105.24 -105.14 -105.04 -104.94 -104.83 -104.72 -104.61 -104.50 -104.39 -104.27 -104.15 -104.03 -103.91 -103.78 -103.65 -103.52 -103.38 -103.24 -103.09 -102.94 -102.79 -102.63 -102.47 -102.30 -102.13 -101.95 -101.77 -101.58 -101.39 -101.19 -100.99 -100.78 -100.57 -100.36 -100.14 -99.92 -99.70 -99.48 -99.26 -99.04 -98.82 -98.60 -98.39 -98.17 -97.97 -97.76 -97.56 -97.36 -97.17 -96.98 -96.79 -96.60 -96.42 -96.24 -96.06 -95.87 -95.69 -95.51 -95.32 -95.14 -94.95 -94.76 -94.57 -94.38 -94.18 -93.99 -93.79 -93.60 -93.40 -93.21 -93.01 -92.82 -92.64 -92.45 -92.28 -92.10 -91.94 -91.78 -91.64 -91.50 -91.37 -91.26 -91.16 -91.07 -90.99 -90.94 -90.89 -90.87 -90.86 -90.88 -90.91 -90.96 -91.04 -91.13 -91.25 -91.39 -91.56 -91.75 -91.96 -92.19 -92.45 -92.73 -93.04 -93.37 -93.72 -94.10 -94.49 -94.91 -95.35 -95.80 -96.28 -96.77 -97.27 -97.80 -98.33 -98.87 -99.43 -99.99 -100.56 -101.14 -101.71 -102.29 -102.87 -103.45 -104.02 -104.59 -105.15 -105.71 -106.25 -106.78 -107.29 -107.79 -108.27 -108.73 -109.16 -109.58 -109.96 -110.32 -110.65 -110.95 -111.21 -111.44 -111.62 -111.77 -111.88 -111.94 -111.96 -111.94 -111.87 -111.76 -111.60 -111.40 -111.16 -110.87 -110.55 -110.18 -109.78 -109.35 -108.89 -108.40 -107.89 -107.35 -106.81 -106.25 -105.68 -105.10 -104.53 -103.95 -103.38 -102.82 -102.26 -101.72 -101.19 -100.68 -100.18 -99.70 -99.24 -98.80 -98.37 -97.97 -97.59 -97.23 -96.88 -96.56 -96.25 -95.96 -95.68 -95.43 -95.18 -94.96 -94.74 -94.54 -94.35 -94.17 -94.01 -93.85 -93.70 -93.56 -93.43 -93.30
-105.19 -105.09 -104.99 -104.88 -104.78 -104.67 -104.56 -104.45 -104.33 -104.21 -104.09 -103.97 -103.84 -103.71 -103.58 -103.44 -103.30 -103.16 -103.02 -102.87 -102.71 -102.55 -102.39 -102.22 -102.05 -101.87 -101.69 -101.50 -101.31 -101.11 -100.91 -100.71 -100.50 -100.29 -100.07 -99.86 -99.64 -99.42 -99.20 -98.98 -98.76 -98.54 -98.33 -98.11 -97.90 -97.69 -97.49 -97.28 -97.08 -96.88 -96.69 -96.49 -96.30 -96.10 -95.91 -95.72 -95.52 -95.33 -95.13 -94.93 -94.73 -94.53 -94.33 -94.13 -93.92 -93.71 -93.51 -93.30 -93.10 -92.89 -92.69 -92.49 -92.29 -92.10 -91.91 -91.73 -91.56 -91.40 -91.24 -91.09 -90.96 -90.83 -90.72 -90.63 -90.54 -90.48 -90.43 -90.39 -90.38 -90.38 -90.41 -90.45 -90.52 -90.61 -90.72 -90.85 -91.01 -91.19 -91.39 -91.62 -91.87 -92.15 -92.44 -92.77 -93.11 -93.48 -93.87 -94.28 -94.71 -95.16 -95.63 -96.11 -96.61 -97.13 -97.66 -98.20 -98.75 -99.30 -99.87 -100.44 -101.01 -101.58 -102.16 -102.73 -103.30 -103.86 -104.41 -104.96 -105.49 -106.02 -106.52 -107.02 -107.49 -107.94 -108.37 -108.78 -109.16 -109.51 -109.83 -110.12 -110.38 -110.60 -110.79 -110.93 -111.04 -111.10 -111.13 -111.11 -111.04 -110.94 -110.79 -110.60 -110.37 -110.09 -109.78 -109.43 -109.05 -108.64 -108.20 -107.73 -107.24 -106.74 -106.21 -105.68 -105.14 -104.59 -104.04 -103.49 -102.94 -102.40 -101.87 -101.35 -100.85 -100.35 -99.88 -99.42 -98.97 -98.55 -98.14 -97.76 -97.39 -97.04 -96.71 -96.39 -96.10 -95.82 -95.55 -95.30 -95.07 -94.85 -94.64 -94.45 -94.26 -94.09 -93.93 -93.77 -93.63 -93.49 -93.36 -93.24
-105.15 -105.04 -104.94 -104.84 -104.73 -104.62 -104.50 -104.39 -104.27 -104.15 -104.03 -103.91 -103.78 -103.65 -103.51 -103.37 -103.23 -103.09 -102.94 -102.79 -102.63 -102.47 -102.31 -102.14 -101.97 -101.79 -101.61 -101.42 -101.23 -101.04 -100.84 -100.63 -100.43 -100.22 -100.01 -99.79 -99.57 -99.36 -99.14 -98.92 -98.70 -98.48 -98.26 -98.05 -97.83 -97.62 -97.41 -97.20 -96.99 -96.79 -96.58 -96.38 -96.17 -95.97 -95.77 -95.56 -95.36 -95.15 -94.95 -94.74 -94.53 -94.32 -94.11 -93.89 -93.68 -93.46 -93.24 -93.03 -92.81 -92.60 -92.39 -92.18 -91.98 -91.78 -91.58 -91.39 -91.21 -91.04 -90.87 -90.72 -90.57 -90.44 -90.32 -90.21 -90.12 -90.05 -89.99 -89.95 -89.92 -89.92 -89.93 -89.97 -90.03 -90.11 -90.21 -90.33 -90.48 -90.65 -90.85 -91.07 -91.31 -91.58 -91.87 -92.19 -92.53 -92.89 -93.27 -93.67 -94.09 -94.54 -95.00 -95.48 -95.97 -96.48 -97.00 -97.53 -98.07 -98.62 -99.18 -99.75 -100.31 -100.88 -101.45 -102.01 -102.57 -103.13 -103.68 -104.21 -104.74 -105.26 -105.76 -106.24 -106.71 -107.15 -107.58 -107.98 -108.35 -108.70 -109.01 -109.30 -109.55 -109.77 -109.95 -110.09 -110.20 -110.26 -110.29 -110.27 -110.21 -110.11 -109.97 -109.79 -109.57 -109.31 -109.02 -108.68 -108.32 -107.93 -107.51 -107.07 -106.60 -106.12 -105.62 -105.11 -104.59 -104.07 -103.54 -103.02 -102.50 -101.99 -101.48 -100.98 -100.50 -100.03 -99.57 -99.13 -98.71 -98.30 -97.91 -97.54 -97.19 -96.85 -96.53 -96.23 -95.95 -95.68 -95.42 -95.18 -94.95 -94.74 -94.54 -94.35 -94.17 -94.00 -93.85 -93.70 -93.56 -93.42 -93.30 -93.18
-105.10 -105.00 -104.89 -104.79 -104.68 -104.57 -104.45 -104.34 -104.22 -104.10 -103.97 -103.85 -103.72 -103.58 -103.45 -103.31 -103.16 -103.02 -102.87 -102.72 -102.56 -102.40 -102.23 -102.06 -101.89 -101.71 -101.53 -101.34 -101.15 -100.96 -100.76 -100.56 -100.35 -100.15 -99.94 -99.72 -99.51 -99.29 -99.07 -98.85 -98.63 -98.42 -98.20 -97.98 -97.76 -97.55 -97.33 -97.12 -96.90 -96.69 -96.48 -96.27 -96.06 -95.85 -95.64 -95.42 -95.21 -95.00 -94.78 -94.56 -94.34 -94.12 -93.90 -93.68 -93.46 -93.23 -93.01 -92.78 -92.56 -92.34 -92.12 -91.90 -91.69 -91.48 -91.28 -91.08 -90.89 -90.71 -90.54 -90.37 -90.22 -90.08 -89.95 -89.84 -89.74 -89.65 -89.58 -89.53 -89.50 -89.49 -89.49 -89.52 -89.57 -89.64 -89.73 -89.85 -89.99 -90.15 -90.34 -90.55 -90.79 -91.05 -91.33 -91.64 -91.97 -92.32 -92.69 -93.09 -93.50 -93.94 -94.39 -94.86 -95.35 -95.85 -96.36 -96.89 -97.42 -97.96 -98.51 -99.07 -99.63 -100.19 -100.75 -101.30 -101.86 -102.41 -102.95 -103.48 -104.00 -104.51 -105.00 -105.47 -105.93 -106.37 -106.79 -107.18 -107.54 -107.88 -108.19 -108.47 -108.72 -108.93 -109.11 -109.25 -109.36 -109.42 -109.45 -109.44 -109.38 -109.29 -109.16 -108.99 -108.78 -108.53 -108.25 -107.94 -107.59 -107.22 -106.82 -106.40 -105.96 -105.50 -105.03 -104.54 -104.05 -103.55 -103.05 -102.56 -102.06 -101.57 -101.09 -100.62 -100.15 -99.70 -99.27 -98.85 -98.44 -98.06 -97.68 -97.33 -96.99 -96.67 -96.36 -96.07 -95.79 -95.53 -95.29 -95.06 -94.84 -94.63 -94.44 -94.25 -94.08 -93.92 -93.77 -93.62 -93.49 -93.36 -93.24 -93.12
-105.06 -104.96 -104.85 -104.74 -104.63 -104.52 -104.40 -104.29 -104.17 -104.04 -103.92 -103.79 -103.66 -103.52 -103.39 -103.24 -103.10 -102.95 -102.80 -102.65 -102.49 -102.33 -102.16 -101.99 -101.82 -101.64 -101.46 -101.27 -101.08 -100.89 -100.69 -100.49 -100.28 -100.08 -99.87 -99.65 -99.44 -99.22 -99.01 -98.79 -98.57 -98.35 -98.13 -97.91 -97.69 -97.47 -97.25 -97.04 -96.82 -96.60 -96.39 -96.17 -95.95 -95.73 -95.51 -95.30 -95.08 -94.85 -94.63 -94.41 -94.18 -93.95 -93.72 -93.49 -93.26 -93.03 -92.80 -92.57 -92.34 -92.11 -91.88 -91.66 -91.44 -91.22 -91.01 -90.81 -90.61 -90.42 -90.24 -90.07 -89.91 -89.76 -89.62 -89.50 -89.39 -89.29 -89.22 -89.16 -89.12 -89.09 -89.09 -89.11 -89.15 -89.21 -89.30 -89.40 -89.53 -89.69 -89.87 -90.07 -90.30 -90.55 -90.82 -91.12 -91.44 -91.78 -92.15 -92.53 -92.94 -93.37 -93.81 -94.27 -94.75 -95.24 -95.75 -96.26 -96.79 -97.33 -97.87 -98.41 -98.96 -99.51 -100.07 -100.62 -101.16 -101.70 -102.23 -102.76 -103.27 -103.77 -104.25 -104.72 -105.17 -105.60 -106.00 -106.39 -106.75 -107.08 -107.38 -107.66 -107.90 -108.11 -108.28 -108.42 -108.53 -108.59 -108.62 -108.61 -108.56 -108.47 -108.35 -108.19 -107.99 -107.76 -107.49 -107.20 -106.87 -106.52 -106.14 -105.74 -105.32 -104.89 -104.44 -103.98 -103.51 -103.04 -102.57 -102.09 -101.62 -101.16 -100.70 -100.25 -99.81 -99.38 -98.97 -98.57 -98.18 -97.81 -97.45 -97.11 -96.79 -96.48 -96.19 -95.91 -95.64 -95.39 -95.16 -94.93 -94.72 -94.52 -94.34 -94.16 -93.99 -93.84 -93.69 -93.55 -93.42 -93.29 -93.17 -93.06
-105.02 -104.92 -104.81 -104.70 -104.59 -104.47 -104.36 -104.24 -104.12 -103.99 -103.87 -103.74 -103.60 -103.47 -103.33 -103.19 -103.04 -102.89 -102.74 -102.58 -102.42 -102.26 -102.09 -101.92 -101.75 -101.57 -101.39 -101.20 -101.01 -100.82 -100.62 -100.42 -100.22 -100.01 -99.80 -99.59 -99.38 -99.16 -98.94 -98.73 -98.51 -98.29 -98.07 -97.85 -97.63 -97.40 -97.18 -96.96 -96.74 -96.52 -96.30 -96.08 -95.86 -95.63 -95.41 -95.19 -94.96 -94.73 -94.50 -94.27 -94.04 -93.81 -93.57 -93.34 -93.10 -92.86 -92.62 -92.39 -92.15 -91.91 -91.68 -91.45 -91.22 -91.00 -90.78 -90.57 -90.37 -90.17 -89.98 -89.80 -89.63 -89.48 -89.33 -89.20 -89.08 -88.98 -88.89 -88.83 -88.78 -88.75 -88.73 -88.74 -88.77 -88.83 -88.90 -89.00 -89.12 -89.27 -89.44 -89.63 -89.85 -90.09 -90.35 -90.64 -90.95 -91.29 -91.64 -92.02 -92.41 -92.83 -93.27 -93.72 -94.19 -94.67 -95.16 -95.67 -96.19 -96.71 -97.25 -97.78 -98.32 -98.87 -99.41 -99.95 -100.48 -101.01 -101.54 -102.05 -102.55 -103.04 -103.52 -103.98 -104.42 -104.84 -105.24 -105.61 -105.96 -106.29 -106.59 -106.85 -107.09 -107.30 -107.47 -107.61 -107.71 -107.77 -107.80 -107.80 -107.75 -107.67 -107.56 -107.41 -107.22 -107.00 -106.75 -106.47 -106.16 -105.83 -105.47 -105.09 -104.70 -104.29 -103.86 -103.43 -102.98 -102.54 -102.09 -101.64 -101.19 -100.75 -100.32 -99.89 -99.47 -99.06 -98.67 -98.29 -97.92 -97.57 -97.23 -96.90 -96.59 -96.30 -96.01 -95.75 -95.49 -95.25 -95.03 -94.81 -94.61 -94.42 -94.24 -94.07 -93.91 -93.76 -93.61 -93.48 -93.35 -93.23 -93.11 -93.00
-104.98 -104.88 -104.77 -104.66 -104.55 -104.43 -104.31 -104.19 -104.07 -103.95 -103.82 -103.69 -103.55 -103.42 -103.28 -103.13 -102.99 -102.84 -102.68 -102.52 -102.36 -102.20 -102.03 -101.86 -101.69 -101.51 -101.32 -101.14 -100.95 -100.75 -100.56 -100.36 -100.16 -99.95 -99.74 -99.53 -99.32 -99.10 -98.89 -98.67 -98.45 -98.23 -98.01 -97.79 -97.57 -97.34 -97.12 -96.90 -96.68 -96.45 -96.23 -96.00 -95.78 -95.55 -95.32 -95.09 -94.86 -94.63 -94.40 -94.16 -93.93 -93.69 -93.45 -93.21 -92.97 -92.72 -92.48 -92.24 -92.00 -91.76 -91.52 -91.28 -91.05 -90.82 -90.60 -90.38 -90.17 -89.96 -89.77 -89.58 -89.40 -89.24 -89.09 -88.95 -88.82 -88.71 -88.62 -88.54 -88.48 -88.44 -88.42 -88.42 -88.44 -88.49 -88.55 -88.64 -88.75 -88.89 -89.05 -89.23 -89.44 -89.67 -89.93 -90.20 -90.51 -90.83 -91.17 -91.54 -91.93 -92.33 -92.76 -93.20 -93.66 -94.13 -94.62 -95.11 -95.62 -96.13 -96.66 -97.18 -97.71 -98.25 -98.78 -99.31 -99.83 -100.35 -100.87 -101.37 -101.86 -102.34 -102.81 -103.26 -103.69 -104.10 -104.49 -104.86 -105.20 -105.52 -105.81 -106.07 -106.30 -106.50 -106.67 -106.81 -106.91 -106.97 -107.00 -107.00 -106.96 -106.89 -106.78 -106.64 -106.46 -106.26 -106.02 -105.76 -105.47 -105.15 -104.82 -104.46 -104.08 -103.70 -103.29 -102.88 -102.47 -102.04 -101.62 -101.19 -100.77 -100.35 -99.94 -99.54 -99.14 -98.75 -98.38 -98.01 -97.66 -97.33 -97.00 -96.69 -96.40 -96.11 -95.85 -95.59 -95.35 -95.12 -94.90 -94.69 -94.50 -94.31 -94.14 -93.98 -93.82 -93.68 -93.54 -93.41 -93.28 -93.17 -93.05 -92.95
-104.95 -104.84 -104.73 -104.62 -104.51 -104.39 -104.27 -104.15 -104.03 -103.90 -103.77 -103.64 -103.51 -103.37 -103.23 -103.08 -102.94 -102.78 -102.63 -102.47 -102.31 -102.15 -101.98 -101.80 -101.63 -101.45 -101.27 -101.08 -100.89 -100.70 -100.50 -100.30 -100.10 -99.90 -99.69 -99.48 -99.27 -99.05 -98.84 -98.62 -98.40 -98.18 -97.96 -97.74 -97.52 -97.30 -97.07 -96.85 -96.62 -96.40 -96.17 -95.95 -95.72 -95.49 -95.26 -95.03 -94.79 -94.56 -94.32 -94.08 -93.84 -93.60 -93.36 -93.11 -92.87 -92.62 -92.38 -92.13 -91.88 -91.64 -91.40 -91.15 -90.92 -90.68 -90.45 -90.23 -90.01 -89.80 -89.60 -89.41 -89.22 -89.05 -88.89 -88.74 -88.61 -88.49 -88.39 -88.31 -88.24 -88.19 -88.16 -88.15 -88.16 -88.20 -88.26 -88.33 -88.44 -88.56 -88.71 -88.88 -89.08 -89.30 -89.55 -89.81 -90.11 -90.42 -90.75 -91.11 -91.49 -91.88 -92.29 -92.72 -93.17 -93.63 -94.11 -94.59 -95.09 -95.59 -96.10 -96.62 -97.14 -97.66 -98.18 -98.70 -99.21 -99.72 -100.22 -100.72 -101.20 -101.67 -102.12 -102.56 -102.98 -103.39 -103.77 -104.13 -104.46 -104.77 -105.05 -105.31 -105.54 -105.73 -105.90 -106.03 -106.13 -106.20 -106.23 -106.23 -106.19 -106.13 -106.03 -105.89 -105.73 -105.54 -105.32 -105.07 -104.79 -104.50 -104.18 -103.84 -103.49 -103.12 -102.74 -102.36 -101.96 -101.56 -101.16 -100.76 -100.36 -99.96 -99.57 -99.19 -98.81 -98.45 -98.09 -97.75 -97.41 -97.09 -96.79 -96.49 -96.21 -95.94 -95.68 -95.44 -95.20 -94.98 -94.78 -94.58 -94.39 -94.21 -94.05 -93.89 -93.74 -93.60 -93.46 -93.34 -93.22 -93.10 -93.00 -92.89
-104.91 -104.81 -104.70 -104.59 -104.47 -104.36 -104.24 -104.12 -103.99 -103.86 -103.73 -103.60 -103.47 -103.33 -103.18 -103.04 -102.89 -102.74 -102.58 -102.42 -102.26 -102.10 -101.93 -101.76 -101.58 -101.40 -101.22 -101.03 -100.84 -100.65 -100.45 -100.25 -100.05 -99.85 -99.64 -99.43 -99.22 -99.01 -98.80 -98.58 -98.36 -98.14 -97.92 -97.70 -97.48 -97.26 -97.03 -96.81 -96.59 -96.36 -96.13 -95.91 -95.68 -95.45 -95.21 -94.98 -94.75 -94.51 -94.27 -94.03 -93.79 -93.54 -93.30 -93.05 -92.80 -92.56 -92.31 -92.06 -91.81 -91.56 -91.31 -91.07 -90.83 -90.59 -90.36 -90.13 -89.90 -89.69 -89.48 -89.28 -89.09 -88.91 -88.75 -88.59 -88.45 -88.33 -88.22 -88.12 -88.05 -87.99 -87.95 -87.93 -87.94 -87.96 -88.01 -88.08 -88.17 -88.29 -88.43 -88.59 -88.78 -88.99 -89.22 -89.48 -89.76 -90.06 -90.38 -90.73 -91.09 -91.47 -91.88 -92.29 -92.73 -93.18 -93.64 -94.11 -94.60 -95.09 -95.59 -96.09 -96.60 -97.11 -97.62 -98.12 -98.63 -99.12 -99.61 -100.10 -100.57 -101.02 -101.47 -101.90 -102.31 -102.70 -103.07 -103.42 -103.75 -104.05 -104.33 -104.58 -104.80 -104.99 -105.15 -105.28 -105.38 -105.44 -105.48 -105.48 -105.45 -105.39 -105.30 -105.17 -105.02 -104.84 -104.63 -104.40 -104.14 -103.86 -103.56 -103.25 -102.91 -102.57 -102.21 -101.85 -101.47 -101.10 -100.72 -100.34 -99.96 -99.59 -99.22 -98.86 -98.50 -98.15 -97.82 -97.49 -97.17 -96.87 -96.57 -96.29 -96.02 -95.77 -95.52 -95.29 -95.07 -94.85 -94.65 -94.46 -94.29 -94.12 -93.95 -93.80 -93.66 -93.52 -93.39 -93.27 -93.15 -93.04 -92.94 -92.84
-104.88 -104.78 -104.67 -104.55 -104.44 -104.32 -104.20 -104.08 -103.96 -103.83 -103.70 -103.57 -103.43 -103.29 -103.15 -103.00 -102.85 -102.70 -102.54 -102.38 -102.22 -102.06 -101.89 -101.71 -101.54 -101.36 -101.18 -100.99 -100.80 -100.61 -100.41 -100.22 -100.02 -99.81 -99.61 -99.40 -99.19 -98.98 -98.76 -98.55 -98.33 -98.12 -97.90 -97.68 -97.46 -97.24 -97.01 -96.79 -96.56 -96.34 -96.11 -95.89 -95.66 -95.43 -95.19 -94.96 -94.72 -94.49 -94.25 -94.01 -93.76 -93.52 -93.27 -93.03 -92.78 -92.53 -92.28 -92.03 -91.77 -91.52 -91.28 -91.03 -90.78 -90.54 -90.30 -90.07 -89.84 -89.62 -89.41 -89.20 -89.01 -88.82 -88.65 -88.49 -88.34 -88.21 -88.09 -87.99 -87.91 -87.84 -87.80 -87.77 -87.76 -87.78 -87.82 -87.88 -87.96 -88.07 -88.19 -88.35 -88.52 -88.72 -88.94 -89.19 -89.46 -89.75 -90.06 -90.39 -90.74 -91.12 -91.50 -91.91 -92.33 -92.77 -93.22 -93.68 -94.15 -94.63 -95.11 -95.61 -96.10 -96.60 -97.09 -97.59 -98.08 -98.56 -99.04 -99.51 -99.97 -100.42 -100.85 -101.27 -101.67 -102.05 -102.41 -102.75 -103.07 -103.36 -103.63 -103.87 -104.09 -104.27 -104.43 -104.56 -104.66 -104.72 -104.76 -104.76 -104.74 -104.68 -104.60 -104.48 -104.34 -104.17 -103.97 -103.76 -103.51 -103.25 -102.97 -102.67 -102.36 -102.04 -101.70 -101.36 -101.00 -100.65 -100.29 -99.94 -99.58 -99.23 -98.88 -98.53 -98.20 -97.87 -97.55 -97.24 -96.94 -96.65 -96.37 -96.10 -95.85 -95.60 -95.37 -95.14 -94.93 -94.73 -94.54 -94.36 -94.18 -94.02 -93.87 -93.72 -93.58 -93.45 -93.32 -93.21 -93.09 -92.99 -92.89 -92.79
-104.86 -104.75 -104.64 -104.53 -104.41 -104.29 -104.17 -104.05 -103.93 -103.80 -103.67 -103.53 -103.40 -103.26 -103.11 -102.97 -102.82 -102.67 -102.51 -102.35 -102.19 -102.02 -101.85 -101.68 -101.50 -101.33 -101.14 -100.96 -100.77 -100.58 -100.38 -100.19 -99.99 -99.79 -99.58 -99.37 -99.17 -98.96 -98.74 -98.53 -98.32 -98.10 -97.88 -97.67 -97.45 -97.23 -97.01 -96.78 -96.56 -96.34 -96.11 -95.89 -95.66 -95.43 -95.20 -94.96 -94.73 -94.49 -94.26 -94.02 -93.77 -93.53 -93.28 -93.04 -92.79 -92.54 -92.29 -92.03 -91.78 -91.53 -91.28 -91.03 -90.78 -90.54 -90.30 -90.06 -89.83 -89.61 -89.39 -89.18 -88.98 -88.79 -88.61 -88.44 -88.29 -88.15 -88.02 -87.92 -87.83 -87.75 -87.70 -87.66 -87.65 -87.65 -87.68 -87.73 -87.80 -87.90 -88.02 -88.16 -88.32 -88.51 -88.72 -88.96 -89.21 -89.49 -89.79 -90.11 -90.45 -90.81 -91.19 -91.58 -91.99 -92.41 -92.85 -93.29 -93.75 -94.22 -94.69 -95.16 -95.65 -96.13 -96.61 -97.09 -97.57 -98.04 -98.51 -98.96 -99.41 -99.84 -100.26 -100.67 -101.06 -101.43 -101.78 -102.11 -102.42 -102.71 -102.97 -103.20 -103.41 -103.59 -103.75 -103.87 -103.97 -104.03 -104.07 -104.08 -104.06 -104.01 -103.93 -103.82 -103.69 -103.53 -103.35 -103.14 -102.91 -102.67 -102.40 -102.12 -101.83 -101.52 -101.21 -100.88 -100.55 -100.22 -99.88 -99.55 -99.21 -98.88 -98.55 -98.22 -97.91 -97.59 -97.29 -97.00 -96.71 -96.44 -96.17 -95.92 -95.67 -95.44 -95.22 -95.00 -94.80 -94.61 -94.43 -94.25 -94.09 -93.93 -93.78 -93.64 -93.51 -93.38 -93.26 -93.14 -93.04 -92.93 -92.83 -92.74
-104.83 -104.72 -104.61 -104.50 -104.38 -104.27 -104.15 -104.03 -103.90 -103.77 -103.64 -103.51 -103.37 -103.23 -103.09 -102.94 -102.79 -102.64 -102.48 -102.32 -102.16 -102.00 -101.83 -101.65 -101.48 -101.30 -101.12 -100.93 -100.75 -100.56 -100.36 -100.17 -99.97 -99.77 -99.57 -99.36 -99.15 -98.95 -98.74 -98.53 -98.31 -98.10 -97.88 -97.67 -97.45 -97.23 -97.02 -96.80 -96.58 -96.35 -96.13 -95.91 -95.68 -95.45 -95.23 -95.00 -94.76 -94.53 -94.29 -94.05 -93.81 -93.57 -93.33 -93.08 -92.83 -92.58 -92.33 -92.08 -91.83 -91.58 -91.33 -91.08 -90.83 -90.58 -90.34 -90.10 -89.87 -89.64 -89.42 -89.20 -89.00 -88.80 -88.62 -88.45 -88.29 -88.14 -88.01 -87.90 -87.80 -87.72 -87.65 -87.61 -87.59 -87.58 -87.60 -87.64 -87.71 -87.79 -87.90 -88.03 -88.18 -88.36 -88.56 -88.78 -89.03 -89.29 -89.58 -89.88 -90.21 -90.56 -90.92 -91.30 -91.69 -92.10 -92.52 -92.96 -93.40 -93.85 -94.31 -94.77 -95.24 -95.71 -96.17 -96.64 -97.10 -97.56 -98.01 -98.46 -98.89 -99.31 -99.72 -100.11 -100.49 -100.85 -101.19 -101.51 -101.81 -102.09 -102.34 -102.57 -102.77 -102.95 -103.10 -103.22 -103.31 -103.38 -103.42 -103.43 -103.41 -103.36 -103.29 -103.19 -103.07 -102.92 -102.75 -102.56 -102.34 -102.11 -101.86 -101.60 -101.32 -101.04 -100.74 -100.44 -100.13 -99.81 -99.49 -99.18 -98.86 -98.55 -98.23 -97.93 -97.63 -97.33 -97.05 -96.77 -96.50 -96.24 -95.98 -95.74 -95.51 -95.29 -95.08 -94.87 -94.68 -94.49 -94.32 -94.15 -93.99 -93.84 -93.70 -93.56 -93.43 -93.31 -93.20 -93.09 -92.98 -92.88 -92.78 -92.69
-104.81 -104.70 -104.59 -104.48 -104.36 -104.24 -104.12 -104.00 -103.88 -103.75 -103.62 -103.48 -103.35 -103.21 -103.07 -102.92 -102.77 -102.62 -102.46 -102.30 -102.14 -101.98 -101.81 -101.64 -101.46 -101.28 -101.10 -100.92 -100.73 -100.54 -100.35 -100.16 -99.96 -99.76 -99.56 -99.36 -99.15 -98.95 -98.74 -98.53 -98.32 -98.11 -97.90 -97.69 -97.47 -97.26 -97.04 -96.83 -96.61 -96.39 -96.17 -95.95 -95.73 -95.50 -95.28 -95.05 -94.82 -94.59 -94.36 -94.12 -93.88 -93.64 -93.40 -93.16 -92.91 -92.67 -92.42 -92.17 -91.92 -91.67 -91.41 -91.16 -90.92 -90.67 -90.43 -90.19 -89.95 -89.72 -89.50 -89.28 -89.07 -88.87 -88.68 -88.51 -88.34 -88.19 -88.05 -87.93 -87.82 -87.74 -87.67 -87.62 -87.58 -87.57 -87.58 -87.61 -87.67 -87.74 -87.84 -87.96 -88.10 -88.27 -88.45 -88.66 -88.89 -89.15 -89.42 -89.71 -90.03 -90.36 -90.71 -91.07 -91.45 -91.85 -92.25 -92.67 -93.10 -93.53 -93.98 -94.42 -94.88 -95.33 -95.78 -96.23 -96.68 -97.13 -97.56 -97.99 -98.41 -98.82 -99.22 -99.60 -99.96 -100.31 -100.64 -100.95 -101.24 -101.51 -101.75 -101.97 -102.17 -102.34 -102.48 -102.60 -102.70 -102.76 -102.80 -102.81 -102.79 -102.75 -102.69 -102.59 -102.48 -102.34 -102.18 -102.00 -101.80 -101.58 -101.35 -101.11 -100.85 -100.58 -100.30 -100.01 -99.72 -99.42 -99.12 -98.82 -98.53 -98.23 -97.94 -97.65 -97.36 -97.08 -96.81 -96.55 -96.29 -96.04 -95.81 -95.58 -95.35 -95.14 -94.94 -94.75 -94.56 -94.38 -94.22 -94.06 -93.90 -93.76 -93.62 -93.49 -93.37 -93.25 -93.14 -93.03 -92.93 -92.83 -92.74 -92.65
-104.79 -104.68 -104.57 -104.46 -104.34 -104.23 -104.11 -103.98 -103.86 -103.73 -103.60 -103.47 -103.33 -103.19 -103.05 -102.90 -102.75 -102.60 -102.45 -102.29 -102.13 -101.96 -101.80 -101.62 -101.45 -101.27 -101.09 -100.91 -100.73 -100.54 -100.35 -100.16 -99.96 -99.76 -99.57 -99.37 -99.16 -98.96 -98.76 -98.55 -98.34 -98.14 -97.93 -97.72 -97.51 -97.30 -97.08 -96.87 -96.66 -96.44 -96.23 -96.01 -95.79 -95.57 -95.35 -95.13 -94.91 -94.68 -94.45 -94.22 -93.98 -93.75 -93.51 -93.27 -93.03 -92.78 -92.54 -92.29 -92.04 -91.79 -91.54 -91.29 -91.05 -90.80 -90.56 -90.32 -90.08 -89.85 -89.62 -89.40 -89.19 -88.99 -88.80 -88.62 -88.45 -88.29 -88.15 -88.02 -87.91 -87.81 -87.73 -87.68 -87.64 -87.62 -87.62 -87.64 -87.68 -87.75 -87.83 -87.94 -88.07 -88.23 -88.40 -88.60 -88.82 -89.06 -89.32 -89.60 -89.90 -90.21 -90.55 -90.90 -91.26 -91.64 -92.03 -92.44 -92.85 -93.27 -93.70 -94.13 -94.56 -95.00 -95.44 -95.88 -96.31 -96.74 -97.16 -97.57 -97.98 -98.37 -98.76 -99.12 -99.48 -99.81 -100.13 -100.43 -100.71 -100.97 -101.20 -101.42 -101.61 -101.77 -101.91 -102.03 -102.12 -102.18 -102.22 -102.23 -102.22 -102.18 -102.12 -102.03 -101.93 -101.80 -101.65 -101.48 -101.29 -101.09 -100.87 -100.64 -100.39 -100.14 -99.88 -99.61 -99.33 -99.05 -98.77 -98.49 -98.21 -97.93 -97.65 -97.38 -97.11 -96.85 -96.59 -96.34 -96.10 -95.86 -95.64 -95.42 -95.21 -95.00 -94.81 -94.63 -94.45 -94.28 -94.12 -93.97 -93.82 -93.68 -93.55 -93.42 -93.30 -93.19 -93.08 -92.98 -92.88 -92.78 -92.69 -92.61
-104.77 -104.66 -104.55 -104.44 -104.33 -104.21 -104.09 -103.97 -103.84 -103.72 -103.59 -103.45 -103.32 -103.18 -103.04 -102.89 -102.74 -102.59 -102.44 -102.28 -102.12 -101.96 -101.79 -101.62 -101.45 -101.27 -101.09 -100.91 -100.73 -100.54 -100.35 -100.16 -99.97 -99.78 -99.58 -99.38 -99.18 -98.98 -98.78 -98.58 -98.38 -98.17 -97.97 -97.76 -97.56 -97.35 -97.14 -96.93 -96.73 -96.52 -96.30 -96.09 -95.88 -95.67 -95.45 -95.23 -95.01 -94.79 -94.57 -94.34 -94.11 -93.88 -93.65 -93.41 -93.17 -92.93 -92.69 -92.45 -92.20 -91.96 -91.71 -91.46 -91.22 -90.97 -90.73 -90.49 -90.25 -90.02 -89.79 -89.57 -89.36 -89.15 -88.96 -88.77 -88.60 -88.44 -88.29 -88.16 -88.04 -87.94 -87.86 -87.79 -87.74 -87.71 -87.71 -87.72 -87.75 -87.81 -87.88 -87.98 -88.10 -88.24 -88.41 -88.59 -88.80 -89.02 -89.27 -89.54 -89.82 -90.12 -90.44 -90.78 -91.13 -91.49 -91.87 -92.25 -92.65 -93.05 -93.46 -93.88 -94.30 -94.72 -95.14 -95.56 -95.98 -96.39 -96.80 -97.20 -97.59 -97.97 -98.34 -98.69 -99.03 -99.36 -99.66 -99.95 -100.22 -100.47 -100.70 -100.90 -101.08 -101.24 -101.38 -101.49 -101.57 -101.64 -101.67 -101.69 -101.68 -101.64 -101.59 -101.51 -101.41 -101.29 -101.14 -100.99 -100.81 -100.62 -100.42 -100.20 -99.97 -99.73 -99.48 -99.23 -98.97 -98.71 -98.44 -98.18 -97.91 -97.65 -97.39 -97.13 -96.87 -96.63 -96.38 -96.14 -95.91 -95.69 -95.48 -95.27 -95.07 -94.87 -94.69 -94.51 -94.34 -94.18 -94.03 -93.88 -93.74 -93.61 -93.48 -93.36 -93.24 -93.13 -93.03 -92.93 -92.83 -92.74 -92.65 -92.57
-104.75 -104.64 -104.54 -104.42 -104.31 -104.20 -104.08 -103.96 -103.83 -103.71 -103.58 -103.44 -103.31 -103.17 -103.03 -102.89 -102.74 -102.59 -102.44 -102.28 -102.12 -101.96 -101.79 -101.62 -101.45 -101.28 -101.10 -100.92 -100.74 -100.56 -100.37 -100.18 -99.99 -99.80 -99.61 -99.41 -99.21 -99.02 -98.82 -98.62 -98.42 -98.22 -98.02 -97.82 -97.62 -97.42 -97.21 -97.01 -96.81 -96.60 -96.40 -96.19 -95.98 -95.77 -95.56 -95.35 -95.14 -94.92 -94.71 -94.49 -94.26 -94.04 -93.81 -93.58 -93.35 -93.11 -92.87 -92.64 -92.39 -92.15 -91.91 -91.67 -91.42 -91.18 -90.94 -90.70 -90.46 -90.23 -90.01 -89.78 -89.57 -89.36 -89.17 -88.98 -88.80 -88.64 -88.49 -88.35 -88.22 -88.12 -88.03 -87.95 -87.90 -87.86 -87.85 -87.85 -87.88 -87.92 -87.99 -88.08 -88.18 -88.31 -88.47 -88.64 -88.83 -89.04 -89.28 -89.53 -89.80 -90.09 -90.39 -90.71 -91.04 -91.39 -91.75 -92.12 -92.50 -92.89 -93.28 -93.68 -94.08 -94.49 -94.89 -95.30 -95.70 -96.10 -96.49 -96.87 -97.25 -97.61 -97.96 -98.30 -98.63 -98.94 -99.24 -99.51 -99.77 -100.01 -100.23 -100.42 -100.60 -100.75 -100.88 -100.99 -101.07 -101.13 -101.17 -101.18 -101.17 -101.14 -101.09 -101.02 -100.92 -100.81 -100.68 -100.53 -100.36 -100.18 -99.99 -99.79 -99.57 -99.35 -99.11 -98.87 -98.63 -98.38 -98.13 -97.88 -97.63 -97.38 -97.14 -96.89 -96.65 -96.42 -96.19 -95.96 -95.74 -95.53 -95.33 -95.13 -94.94 -94.75 -94.58 -94.41 -94.25 -94.09 -93.94 -93.80 -93.67 -93.54 -93.42 -93.30 -93.19 -93.08 -92.98 -92.88 -92.79 -92.70 -92.61 -92.53
-104.74 -104.63 -104.52 -104.41 -104.30 -104.19 -104.07 -103.95 -103.82 -103.70 -103.57 -103.44 -103.31 -103.17 -103.03 -102.89 -102.74 -102.59 -102.44 -102.28 -102.12 -101.96 -101.80 -101.63 -101.46 -101.29 -101.12 -100.94 -100.76 -100.58 -100.39 -100.21 -100.02 -99.83 -99.64 -99.45 -99.25 -99.06 -98.87 -98.67 -98.48 -98.28 -98.08 -97.89 -97.69 -97.49 -97.30 -97.10 -96.90 -96.70 -96.50 -96.30 -96.10 -95.90 -95.70 -95.49 -95.29 -95.08 -94.87 -94.65 -94.44 -94.22 -94.00 -93.77 -93.55 -93.32 -93.09 -92.85 -92.62 -92.38 -92.14 -91.90 -91.66 -91.42 -91.18 -90.95 -90.71 -90.48 -90.26 -90.04 -89.82 -89.62 -89.42 -89.23 -89.05 -88.88 -88.73 -88.58 -88.46 -88.34 -88.25 -88.17 -88.11 -88.06 -88.04 -88.04 -88.05 -88.09 -88.14 -88.22 -88.32 -88.44 -88.58 -88.74 -88.92 -89.12 -89.33 -89.57 -89.83 -90.10 -90.39 -90.69 -91.01 -91.34 -91.68 -92.04 -92.40 -92.77 -93.15 -93.53 -93.91 -94.30 -94.69 -95.08 -95.46 -95.84 -96.22 -96.58 -96.94 -97.29 -97.63 -97.96 -98.27 -98.57 -98.85 -99.12 -99.36 -99.59 -99.80 -99.99 -100.15 -100.30 -100.42 -100.53 -100.61 -100.66 -100.70 -100.71 -100.71 -100.68 -100.63 -100.56 -100.47 -100.36 -100.24 -100.10 -99.95 -99.78 -99.59 -99.40 -99.20 -98.99 -98.77 -98.54 -98.31 -98.08 -97.85 -97.61 -97.37 -97.14 -96.90 -96.67 -96.44 -96.22 -96.00 -95.79 -95.58 -95.38 -95.18 -95.00 -94.81 -94.64 -94.47 -94.31 -94.15 -94.01 -93.86 -93.73 -93.60 -93.47 -93.36 -93.24 -93.13 -93.03 -92.93 -92.84 -92.75 -92.66 -92.58 -92.50
-104.73 -104.62 -104.51 -104.40 -104.29 -104.18 -104.06 -103.94 -103.82 -103.70 -103.57 -103.44 -103.31 -103.17 -103.03 -102.89 -102.74 -102.60 -102.44 -102.29 -102.13 -101.97 -101.81 -101.65 -101.48 -101.31 -101.13 -100.96 -100.78 -100.60 -100.42 -100.24 -100.05 -99.87 -99.68 -99.49 -99.30 -99.11 -98.92 -98.73 -98.54 -98.35 -98.15 -97.96 -97.77 -97.58 -97.39 -97.20 -97.01 -96.81 -96.62 -96.43 -96.23 -96.04 -95.84 -95.64 -95.45 -95.24 -95.04 -94.84 -94.63 -94.42 -94.20 -93.99 -93.77 -93.54 -93.32 -93.09 -92.86 -92.63 -92.40 -92.16 -91.93 -91.69 -91.46 -91.23 -91.00 -90.77 -90.54 -90.32 -90.11 -89.90 -89.71 -89.51 -89.33 -89.16 -89.01 -88.86 -88.73 -88.61 -88.51 -88.43 -88.36 -88.31 -88.28 -88.27 -88.27 -88.30 -88.35 -88.41 -88.50 -88.61 -88.74 -88.88 -89.05 -89.24 -89.44 -89.66 -89.91 -90.16 -90.44 -90.72 -91.02 -91.34 -91.66 -92.00 -92.35 -92.70 -93.06 -93.42 -93.79 -94.16 -94.53 -94.90 -95.27 -95.63 -95.99 -96.34 -96.69 -97.02 -97.34 -97.65 -97.95 -98.24 -98.51 -98.76 -98.99 -99.21 -99.41 -99.59 -99.75 -99.89 -100.01 -100.10 -100.18 -100.23 -100.27 -100.28 -100.28 -100.25 -100.20 -100.14 -100.05 -99.95 -99.84 -99.70 -99.56 -99.40 -99.23 -99.05 -98.85 -98.65 -98.45 -98.24 -98.02 -97.80 -97.58 -97.35 -97.13 -96.91 -96.68 -96.47 -96.25 -96.04 -95.83 -95.63 -95.43 -95.24 -95.05 -94.87 -94.70 -94.53 -94.37 -94.22 -94.07 -93.93 -93.79 -93.66 -93.53 -93.41 -93.30 -93.19 -93.09 -92.99 -92.89 -92.80 -92.71 -92.62 -92.54 -92.46
-104.72 -104.61 -104.50 -104.40 -104.29 -104.17 -104.06 -103.94 -103.82 -103.69 -103.57 -103.44 -103.31 -103.17 -103.04 -102.90 -102.75 -102.61 -102.46 -102.30 -102.15 -101.99 -101.83 -101.67 -101.50 -101.33 -101.16 -100.99 -100.81 -100.63 -100.45 -100.27 -100.09 -99.91 -99.72 -99.54 -99.35 -99.17 -98.98 -98.79 -98.61 -98.42 -98.23 -98.05 -97.86 -97.67 -97.49 -97.30 -97.12 -96.93 -96.75 -96.56 -96.37 -96.19 -96.00 -95.81 -95.62 -95.42 -95.23 -95.03 -94.83 -94.63 -94.42 -94.22 -94.00 -93.79 -93.57 -93.35 -93.13 -92.91 -92.68 -92.45 -92.22 -91.99 -91.76 -91.53 -91.31 -91.08 -90.86 -90.64 -90.43 -90.23 -90.03 -89.84 -89.66 -89.49 -89.33 -89.18 -89.04 -88.92 -88.82 -88.73 -88.66 -88.60 -88.56 -88.54 -88.54 -88.56 -88.60 -88.65 -88.73 -88.82 -88.94 -89.08 -89.23 -89.40 -89.59 -89.80 -90.03 -90.27 -90.53 -90.80 -91.08 -91.38 -91.69 -92.01 -92.34 -92.67 -93.01 -93.36 -93.71 -94.06 -94.42 -94.77 -95.12 -95.46 -95.80 -96.14 -96.47 -96.79 -97.09 -97.39 -97.67 -97.94 -98.20 -98.44 -98.66 -98.87 -99.06 -99.23 -99.38 -99.51 -99.62 -99.72 -99.79 -99.84 -99.87 -99.89 -99.88 -99.85 -99.81 -99.75 -99.67 -99.57 -99.46 -99.34 -99.20 -99.05 -98.89 -98.72 -98.53 -98.35 -98.15 -97.95 -97.75 -97.54 -97.33 -97.12 -96.90 -96.69 -96.48 -96.27 -96.07 -95.87 -95.67 -95.48 -95.29 -95.11 -94.93 -94.76 -94.59 -94.43 -94.28 -94.13 -93.99 -93.85 -93.72 -93.59 -93.47 -93.36 -93.25 -93.14 -93.04 -92.94 -92.85 -92.76 -92.67 -92.59 -92.51 -92.43
-104.71 -104.60 -104.50 -104.39 -104.28 -104.17 -104.05 -103.94 -103.82 -103.70 -103.57 -103.44 -103.31 -103.18 -103.04 -102.91 -102.76 -102.62 -102.47 -102.32 -102.17 -102.01 -101.85 -101.69 -101.52 -101.36 -101.19 -101.02 -100.84 -100.67 -100.49 -100.31 -100.13 -99.95 -99.77 -99.59 -99.41 -99.23 -99.04 -98.86 -98.68 -98.50 -98.31 -98.13 -97.95 -97.77 -97.59 -97.41 -97.23 -97.06 -96.88 -96.70 -96.52 -96.34 -96.16 -95.98 -95.80 -95.61 -95.43 -95.24 -95.05 -94.85 -94.66 -94.46 -94.25 -94.05 -93.84 -93.63 -93.41 -93.20 -92.98 -92.76 -92.53 -92.31 -92.09 -91.86 -91.64 -91.42 -91.20 -90.99 -90.78 -90.58 -90.38 -90.19 -90.01 -89.84 -89.68 -89.53 -89.39 -89.27 -89.16 -89.06 -88.99 -88.93 -88.88 -88.85 -88.84 -88.85 -88.88 -88.93 -89.00 -89.08 -89.19 -89.31 -89.45 -89.61 -89.79 -89.98 -90.19 -90.42 -90.66 -90.92 -91.19 -91.47 -91.76 -92.06 -92.37 -92.69 -93.01 -93.34 -93.67 -94.01 -94.34 -94.67 -95.01 -95.34 -95.66 -95.98 -96.29 -96.59 -96.88 -97.16 -97.43 -97.69 -97.93 -98.16 -98.37 -98.57 -98.75 -98.91 -99.05 -99.17 -99.28 -99.37 -99.43 -99.48 -99.51 -99.52 -99.52 -99.49 -99.45 -99.39 -99.31 -99.22 -99.12 -99.00 -98.87 -98.73 -98.57 -98.41 -98.24 -98.06 -97.88 -97.69 -97.49 -97.29 -97.10 -96.90 -96.69 -96.49 -96.29 -96.10 -95.90 -95.71 -95.52 -95.34 -95.16 -94.99 -94.82 -94.65 -94.50 -94.34 -94.19 -94.05 -93.91 -93.78 -93.66 -93.54 -93.42 -93.31 -93.20 -93.10 -93.00 -92.90 -92.81 -92.72 -92.64 -92.56 -92.48 -92.40
-104.70 -104.60 -104.49 -104.39 -104.28 -104.17 -104.05 -103.94 -103.82 -103.70 -103.58 -103.45 -103.32 -103.19 -103.06 -102.92 -102.78 -102.63 -102.49 -102.34 -102.19 -102.03 -101.87 -101.71 -101.55 -101.39 -101.22 -101.05 -100.88 -100.71 -100.53 -100.36 -100.18 -100.00 -99.82 -99.65 -99.47 -99.29 -99.11 -98.93 -98.75 -98.57 -98.40 -98.22 -98.05 -97.87 -97.70 -97.52 -97.35 -97.18 -97.01 -96.84 -96.67 -96.50 -96.32 -96.15 -95.98 -95.80 -95.63 -95.45 -95.26 -95.08 -94.89 -94.70 -94.51 -94.32 -94.12 -93.91 -93.71 -93.50 -93.29 -93.08 -92.86 -92.64 -92.43 -92.21 -91.99 -91.78 -91.57 -91.36 -91.15 -90.95 -90.76 -90.57 -90.39 -90.22 -90.06 -89.91 -89.77 -89.64 -89.53 -89.43 -89.35 -89.28 -89.23 -89.20 -89.18 -89.19 -89.21 -89.24 -89.30 -89.38 -89.47 -89.58 -89.71 -89.86 -90.02 -90.20 -90.40 -90.61 -90.83 -91.07 -91.33 -91.59 -91.86 -92.15 -92.44 -92.74 -93.05 -93.36 -93.67 -93.99 -94.30 -94.62 -94.93 -95.24 -95.55 -95.85 -96.15 -96.43 -96.71 -96.97 -97.23 -97.47 -97.70 -97.92 -98.12 -98.30 -98.47 -98.62 -98.75 -98.87 -98.97 -99.05 -99.11 -99.16 -99.18 -99.19 -99.18 -99.16 -99.12 -99.06 -98.99 -98.90 -98.80 -98.69 -98.57 -98.43 -98.28 -98.13 -97.97 -97.80 -97.62 -97.44 -97.26 -97.07 -96.88 -96.69 -96.50 -96.31 -96.12 -95.93 -95.75 -95.57 -95.39 -95.21 -95.04 -94.88 -94.71 -94.56 -94.40 -94.26 -94.12 -93.98 -93.85 -93.72 -93.60 -93.48 -93.37 -93.26 -93.16 -93.06 -92.96 -92.87 -92.78 -92.69 -92.61 -92.53 -92.45 -92.38
-104.69 -104.59 -104.49 -104.39 -104.28 -104.17 -104.06 -103.94 -103.83 -103.71 -103.58 -103.46 -103.33 -103.20 -103.07 -102.93 -102.79 -102.65 -102.51 -102.36 -102.21 -102.06 -101.90 -101.74 -101.58 -101.42 -101.25 -101.09 -100.92 -100.75 -100.57 -100.40 -100.23 -100.05 -99.88 -99.70 -99.52 -99.35 -99.17 -99.00 -98.82 -98.65 -98.48 -98.31 -98.14 -97.97 -97.80 -97.63 -97.47 -97.30 -97.14 -96.98 -96.81 -96.65 -96.49 -96.32 -96.16 -95.99 -95.82 -95.66 -95.48 -95.31 -95.13 -94.95 -94.77 -94.58 -94.39 -94.20 -94.01 -93.81 -93.61 -93.40 -93.20 -92.99 -92.78 -92.57 -92.36 -92.15 -91.94 -91.74 -91.54 -91.34 -91.15 -90.96 -90.79 -90.62 -90.46 -90.31 -90.17 -90.04 -89.93 -89.83 -89.74 -89.67 -89.62 -89.58 -89.55 -89.55 -89.56 -89.59 -89.64 -89.70 -89.79 -89.89 -90.00 -90.14 -90.29 -90.45 -90.64 -90.83 -91.04 -91.27 -91.50 -91.75 -92.01 -92.27 -92.55 -92.83 -93.12 -93.41 -93.70 -94.00 -94.30 -94.60 -94.89 -95.19 -95.48 -95.76 -96.04 -96.31 -96.57 -96.82 -97.06 -97.29 -97.50 -97.70 -97.89 -98.06 -98.22 -98.36 -98.49 -98.60 -98.69 -98.76 -98.82 -98.86 -98.89 -98.89 -98.88 -98.86 -98.82 -98.76 -98.69 -98.61 -98.51 -98.41 -98.29 -98.16 -98.02 -97.87 -97.72 -97.56 -97.39 -97.22 -97.04 -96.87 -96.69 -96.50 -96.32 -96.14 -95.96 -95.78 -95.61 -95.43 -95.26 -95.10 -94.93 -94.77 -94.62 -94.47 -94.32 -94.18 -94.04 -93.91 -93.78 -93.66 -93.54 -93.43 -93.32 -93.22 -93.12 -93.02 -92.92 -92.83 -92.75 -92.66 -92.58 -92.50 -92.43 -92.35
-104.69 -104.59 -104.49 -104.38 -104.28 -104.17 -104.06 -103.95 -103.83 -103.71 -103.59 -103.47 -103.34 -103.21 -103.08 -102.95 -102.81 -102.67 -102.53 -102.38 -102.23 -102.08 -101.93 -101.77 -101.61 -101.45 -101.29 -101.12 -100.95 -100.79 -100.62 -100.44 -100.27 -100.10 -99.93 -99.75 -99.58 -99.41 -99.23 -99.06 -98.89 -98.72 -98.55 -98.39 -98.22 -98.06 -97.90 -97.74 -97.58 -97.42 -97.26 -97.11 -96.95 -96.80 -96.64 -96.49 -96.33 -96.18 -96.02 -95.86 -95.70 -95.53 -95.37 -95.20 -95.03 -94.85 -94.67 -94.49 -94.30 -94.11 -93.92 -93.73 -93.53 -93.33 -93.13 -92.93 -92.73 -92.53 -92.33 -92.13 -91.93 -91.74 -91.56 -91.37 -91.20 -91.03 -90.87 -90.73 -90.59 -90.46 -90.34 -90.24 -90.15 -90.08 -90.02 -89.98 -89.95 -89.94 -89.94 -89.96 -90.00 -90.06 -90.13 -90.22 -90.32 -90.44 -90.58 -90.73 -90.90 -91.08 -91.28 -91.49 -91.71 -91.94 -92.18 -92.43 -92.68 -92.95 -93.22 -93.49 -93.77 -94.05 -94.33 -94.61 -94.89 -95.16 -95.43 -95.70 -95.96 -96.21 -96.46 -96.69 -96.92 -97.13 -97.33 -97.52 -97.70 -97.86 -98.01 -98.14 -98.25 -98.35 -98.44 -98.51 -98.56 -98.60 -98.62 -98.62 -98.61 -98.58 -98.54 -98.49 -98.42 -98.34 -98.25 -98.15 -98.03 -97.91 -97.78 -97.64 -97.49 -97.33 -97.18 -97.01 -96.85 -96.68 -96.50 -96.33 -96.16 -95.99 -95.81 -95.64 -95.48 -95.31 -95.15 -94.99 -94.83 -94.68 -94.53 -94.38 -94.24 -94.11 -93.98 -93.85 -93.73 -93.61 -93.49 -93.38 -93.28 -93.18 -93.08 -92.98 -92.89 -92.80 -92.72 -92.64 -92.56 -92.48 -92.40 -92.33
-104.69 -104.59 -104.49 -104.38 -104.28 -104.17 -104.06 -103.95 -103.84 -103.72 -103.60 -103.48 -103.36 -103.23 -103.10 -102.96 -102.83 -102.69 -102.55 -102.40 -102.26 -102.11 -101.95 -101.80 -101.64 -101.48 -101.32 -101.16 -100.99 -100.82 -100.65 -100.48 -100.31 -100.14 -99.97 -99.80 -99.63 -99.46 -99.29 -99.12 -98.95 -98.79 -98.62 -98.46 -98.30 -98.14 -97.99 -97.83 -97.68 -97.53 -97.38 -97.23 -97.08 -96.93 -96.79 -96.64 -96.49 -96.35 -96.20 -96.05 -95.90 -95.75 -95.59 -95.43 -95.27 -95.11 -94.94 -94.77 -94.59 -94.42 -94.24 -94.05 -93.87 -93.68 -93.49 -93.29 -93.10 -92.91 -92.72 -92.52 -92.34 -92.15 -91.97 -91.79 -91.62 -91.46 -91.30 -91.16 -91.02 -90.89 -90.78 -90.67 -90.58 -90.50 -90.44 -90.39 -90.36 -90.34 -90.34 -90.35 -90.38 -90.43 -90.49 -90.57 -90.67 -90.78 -90.90 -91.04 -91.19 -91.36 -91.54 -91.73 -91.94 -92.15 -92.37 -92.61 -92.85 -93.09 -93.34 -93.60 -93.86 -94.12 -94.38 -94.65 -94.91 -95.16 -95.42 -95.67 -95.91 -96.15 -96.38 -96.60 -96.81 -97.01 -97.19 -97.37 -97.53 -97.68 -97.82 -97.94 -98.05 -98.14 -98.22 -98.28 -98.33 -98.36 -98.37 -98.38 -98.36 -98.34 -98.30 -98.24 -98.18 -98.10 -98.01 -97.91 -97.80 -97.68 -97.55 -97.42 -97.28 -97.13 -96.98 -96.82 -96.66 -96.50 -96.34 -96.17 -96.01 -95.84 -95.68 -95.52 -95.36 -95.20 -95.04 -94.89 -94.74 -94.59 -94.45 -94.31 -94.17 -94.04 -93.92 -93.79 -93.67 -93.56 -93.45 -93.34 -93.24 -93.14 -93.04 -92.95 -92.86 -92.78 -92.69 -92.61 -92.53 -92.46 -92.38 -92.31
-104.68 -104.59 -104.49 -104.38 -104.28 -104.18 -104.07 -103.96 -103.84 -103.73 -103.61 -103.49 -103.37 -103.24 -103.11 -102.98 -102.85 -102.71 -102.57 -102.43 -102.28 -102.13 -101.98 -101.83 -101.67 -101.51 -101.35 -101.19 -101.02 -100.86 -100.69 -100.52 -100.35 -100.18 -100.01 -99.84 -99.67 -99.50 -99.34 -99.17 -99.01 -98.84 -98.68 -98.52 -98.37 -98.21 -98.06 -97.91 -97.76 -97.62 -97.47 -97.33 -97.19 -97.05 -96.91 -96.78 -96.64 -96.50 -96.36 -96.23 -96.09 -95.94 -95.80 -95.65 -95.50 -95.35 -95.19 -95.03 -94.87 -94.71 -94.54 -94.36 -94.19 -94.01 -93.83 -93.65 -93.47 -93.28 -93.10 -92.92 -92.73 -92.56 -92.38 -92.21 -92.05 -91.89 -91.73 -91.59 -91.45 -91.33 -91.21 -91.11 -91.02 -90.94 -90.87 -90.82 -90.78 -90.76 -90.75 -90.76 -90.78 -90.82 -90.87 -90.94 -91.03 -91.13 -91.24 -91.36 -91.51 -91.66 -91.82 -92.00 -92.19 -92.39 -92.59 -92.81 -93.03 -93.26 -93.50 -93.73 -93.97 -94.22 -94.46 -94.71 -94.95 -95.19 -95.43 -95.66 -95.89 -96.11 -96.32 -96.52 -96.72 -96.90 -97.08 -97.24 -97.39 -97.53 -97.66 -97.77 -97.87 -97.95 -98.02 -98.08 -98.12 -98.14 -98.16 -98.15 -98.14 -98.11 -98.07 -98.02 -97.95 -97.88 -97.79 -97.69 -97.59 -97.47 -97.35 -97.22 -97.09 -96.94 -96.80 -96.65 -96.50 -96.34 -96.19 -96.03 -95.87 -95.71 -95.56 -95.40 -95.24 -95.09 -94.94 -94.80 -94.65 -94.51 -94.37 -94.24 -94.11 -93.98 -93.86 -93.74 -93.63 -93.51 -93.41 -93.30 -93.20 -93.11 -93.01 -92.92 -92.83 -92.75 -92.67 -92.59 -92.51 -92.44 -92.36 -92.29
-104.68 -104.58 -104.49 -104.39 -104.28 -104.18 -104.07 -103.96 -103.85 -103.74 -103.62 -103.50 -103.38 -103.26 -103.13 -103.00 -102.86 -102.73 -102.59 -102.45 -102.30 -102.15 -102.00 -101.85 -101.69 -101.54 -101.38 -101.21 -101.05 -100.88 -100.72 -100.55 -100.38 -100.21 -100.04 -99.88 -99.71 -99.54 -99.37 -99.21 -99.05 -98.89 -98.73 -98.57 -98.42 -98.27 -98.12 -97.97 -97.83 -97.69 -97.55 -97.42 -97.28 -97.15 -97.02 -96.89 -96.77 -96.64 -96.51 -96.38 -96.25 -96.12 -95.99 -95.85 -95.71 -95.57 -95.43 -95.28 -95.13 -94.98 -94.82 -94.66 -94.50 -94.33 -94.16 -93.99 -93.82 -93.64 -93.47 -93.30 -93.13 -92.96 -92.79 -92.62 -92.47 -92.31 -92.16 -92.02 -91.89 -91.77 -91.66 -91.55 -91.46 -91.38 -91.31 -91.26 -91.22 -91.19 -91.18 -91.18 -91.19 -91.22 -91.27 -91.33 -91.40 -91.49 -91.59 -91.70 -91.83 -91.97 -92.12 -92.28 -92.46 -92.64 -92.83 -93.03 -93.24 -93.45 -93.66 -93.89 -94.11 -94.33 -94.56 -94.79 -95.01 -95.24 -95.46 -95.67 -95.88 -96.09 -96.29 -96.47 -96.66 -96.83 -96.99 -97.14 -97.28 -97.40 -97.52 -97.62 -97.71 -97.78 -97.85 -97.89 -97.93 -97.95 -97.96 -97.96 -97.94 -97.91 -97.87 -97.81 -97.75 -97.67 -97.59 -97.50 -97.39 -97.28 -97.16 -97.04 -96.91 -96.77 -96.63 -96.49 -96.34 -96.20 -96.05 -95.89 -95.74 -95.59 -95.44 -95.29 -95.14 -95.00 -94.85 -94.71 -94.57 -94.44 -94.30 -94.17 -94.05 -93.93 -93.81 -93.69 -93.58 -93.47 -93.37 -93.27 -93.17 -93.07 -92.98 -92.89 -92.81 -92.72 -92.64 -92.57 -92.49 -92.42 -92.34 -92.27
-104.68 -104.58 -104.48 -104.39 -104.28 -104.18 -104.08 -103.97 -103.86 -103.75 -103.63 -103.51 -103.39 -103.27 -103.14 -103.01 -102.88 -102.74 -102.61 -102.46 -102.32 -102.17 -102.02 -101.87 -101.71 -101.56 -101.40 -101.23 -101.07 -100.91 -100.74 -100.57 -100.40 -100.23 -100.07 -99.90 -99.73 -99.56 -99.40 -99.24 -99.07 -98.91 -98.76 -98.60 -98.45 -98.30 -98.16 -98.02 -97.88 -97.74 -97.61 -97.48 -97.35 -97.23 -97.11 -96.98 -96.86 -96.75 -96.63 -96.51 -96.39 -96.27 -96.15 -96.02 -95.90 -95.77 -95.64 -95.50 -95.37 -95.22 -95.08 -94.93 -94.78 -94.63 -94.47 -94.31 -94.15 -93.99 -93.83 -93.67 -93.50 -93.34 -93.18 -93.03 -92.88 -92.73 -92.59 -92.45 -92.33 -92.21 -92.09 -91.99 -91.90 -91.82 -91.75 -91.70 -91.65 -91.62 -91.60 -91.60 -91.61 -91.63 -91.67 -91.72 -91.78 -91.86 -91.95 -92.05 -92.17 -92.29 -92.43 -92.58 -92.74 -92.90 -93.08 -93.26 -93.45 -93.65 -93.85 -94.05 -94.26 -94.47 -94.68 -94.89 -95.09 -95.30 -95.50 -95.70 -95.90 -96.09 -96.27 -96.44 -96.61 -96.77 -96.91 -97.05 -97.18 -97.29 -97.40 -97.49 -97.57 -97.64 -97.69 -97.73 -97.76 -97.78 -97.78 -97.78 -97.76 -97.72 -97.68 -97.63 -97.56 -97.49 -97.41 -97.31 -97.21 -97.11 -96.99 -96.87 -96.75 -96.62 -96.48 -96.34 -96.20 -96.06 -95.92 -95.77 -95.63 -95.48 -95.34 -95.19 -95.05 -94.91 -94.77 -94.63 -94.50 -94.37 -94.24 -94.11 -93.99 -93.87 -93.76 -93.65 -93.54 -93.43 -93.33 -93.23 -93.14 -93.05 -92.96 -92.87 -92.78 -92.70 -92.62 -92.55 -92.47 -92.40 -92.32 -92.25
-104.67 -104.58 -104.48 -104.39 -104.29 -104.18 -104.08 -103.97 -103.86 -103.75 -103.64 -103.52 -103.40 -103.28 -103.15 -103.02 -102.89 -102.76 -102.62 -102.48 -102.34 -102.19 -102.04 -101.89 -101.73 -101.57 -101.41 -101.25 -101.09 -100.92 -100.75 -100.58 -100.42 -100.25 -100.08 -99.91 -99.74 -99.57 -99.41 -99.24 -99.08 -98.92 -98.77 -98.61 -98.46 -98.32 -98.18 -98.04 -97.90 -97.77 -97.64 -97.52 -97.39 -97.28 -97.16 -97.05 -96.93 -96.82 -96.71 -96.60 -96.49 -96.39 -96.27 -96.16 -96.05 -95.93 -95.81 -95.69 -95.57 -95.44 -95.31 -95.18 -95.04 -94.90 -94.76 -94.61 -94.46 -94.31 -94.16 -94.01 -93.86 -93.71 -93.56 -93.42 -93.27 -93.13 -93.00 -92.87 -92.75 -92.63 -92.52 -92.43 -92.34 -92.26 -92.19 -92.13 -92.09 -92.05 -92.03 -92.02 -92.03 -92.04 -92.07 -92.11 -92.17 -92.24 -92.31 -92.41 -92.51 -92.62 -92.75 -92.88 -93.02 -93.18 -93.34 -93.50 -93.68 -93.86 -94.04 -94.23 -94.42 -94.61 -94.80 -95.00 -95.19 -95.38 -95.57 -95.75 -95.93 -96.10 -96.27 -96.43 -96.58 -96.72 -96.86 -96.98 -97.10 -97.20 -97.30 -97.38 -97.45 -97.51 -97.56 -97.59 -97.61 -97.63 -97.63 -97.61 -97.59 -97.56 -97.51 -97.46 -97.40 -97.32 -97.24 -97.15 -97.05 -96.95 -96.84 -96.72 -96.60 -96.47 -96.34 -96.21 -96.07 -95.94 -95.80 -95.66 -95.52 -95.38 -95.24 -95.10 -94.96 -94.83 -94.69 -94.56 -94.43 -94.30 -94.18 -94.06 -93.94 -93.83 -93.72 -93.61 -93.50 -93.40 -93.30 -93.20 -93.11 -93.02 -92.93 -92.84 -92.76 -92.68 -92.60 -92.53 -92.45 -92.38 -92.31 -92.24
-104.67 -104.58 -104.48 -104.39 -104.29 -104.19 -104.08 -103.98 -103.87 -103.76 -103.65 -103.53 -103.41 -103.29 -103.16 -103.03 -102.90 -102.77 -102.63 -102.49 -102.35 -102.20 -102.05 -101.90 -101.74 -101.58 -101.42 -101.26 -101.09 -100.92 -100.75 -100.59 -100.41 -100.24 -100.07 -99.90 -99.73 -99.56 -99.40 -99.23 -99.07 -98.91 -98.75 -98.60 -98.45 -98.31 -98.17 -98.03 -97.89 -97.77 -97.64 -97.52 -97.40 -97.29 -97.18 -97.07 -96.97 -96.86 -96.76 -96.66 -96.56 -96.47 -96.37 -96.27 -96.17 -96.06 -95.96 -95.85 -95.74 -95.63 -95.51 -95.39 -95.27 -95.14 -95.01 -94.88 -94.75 -94.61 -94.47 -94.33 -94.19 -94.06 -93.92 -93.78 -93.65 -93.52 -93.39 -93.27 -93.15 -93.04 -92.94 -92.85 -92.76 -92.68 -92.62 -92.56 -92.51 -92.48 -92.45 -92.44 -92.44 -92.45 -92.47 -92.51 -92.55 -92.61 -92.68 -92.76 -92.85 -92.95 -93.06 -93.18 -93.31 -93.45 -93.60 -93.75 -93.91 -94.07 -94.24 -94.41 -94.59 -94.76 -94.94 -95.12 -95.29 -95.47 -95.64 -95.81 -95.97 -96.13 -96.28 -96.43 -96.56 -96.70 -96.82 -96.93 -97.03 -97.13 -97.21 -97.28 -97.34 -97.40 -97.44 -97.46 -97.48 -97.49 -97.48 -97.47 -97.44 -97.41 -97.36 -97.31 -97.24 -97.17 -97.09 -97.00 -96.90 -96.80 -96.69 -96.58 -96.46 -96.34 -96.21 -96.09 -95.96 -95.82 -95.69 -95.55 -95.42 -95.28 -95.15 -95.01 -94.88 -94.75 -94.62 -94.49 -94.37 -94.25 -94.13 -94.01 -93.89 -93.78 -93.67 -93.57 -93.47 -93.37 -93.27 -93.17 -93.08 -92.99 -92.91 -92.82 -92.74 -92.66 -92.58 -92.51 -92.43 -92.36 -92.29 -92.22
-104.67 -104.57 -104.48 -104.38 -104.29 -104.19 -104.08 -103.98 -103.87 -103.76 -103.65 -103.53 -103.42 -103.29 -103.17 -103.04 -102.91 -102.78 -102.64 -102.50 -102.35 -102.20 -102.05 -101.90 -101.74 -101.58 -101.42 -101.25 -101.09 -100.92 -100.75 -100.57 -100.40 -100.23 -100.05 -99.88 -99.71 -99.54 -99.37 -99.20 -99.04 -98.88 -98.72 -98.56 -98.41 -98.27 -98.13 -97.99 -97.86 -97.73 -97.61 -97.49 -97.38 -97.27 -97.16 -97.06 -96.96 -96.87 -96.77 -96.68 -96.59 -96.51 -96.42 -96.33 -96.24 -96.15 -96.06 -95.96 -95.87 -95.77 -95.67 -95.56 -95.45 -95.34 -95.23 -95.11 -94.99 -94.87 -94.75 -94.62 -94.50 -94.37 -94.25 -94.12 -94.00 -93.88 -93.76 -93.65 -93.54 -93.44 -93.34 -93.25 -93.17 -93.09 -93.03 -92.97 -92.92 -92.89 -92.86 -92.84 -92.84 -92.85 -92.86 -92.89 -92.93 -92.98 -93.04 -93.11 -93.19 -93.28 -93.38 -93.49 -93.60 -93.73 -93.86 -94.00 -94.14 -94.29 -94.44 -94.60 -94.76 -94.92 -95.08 -95.24 -95.40 -95.56 -95.72 -95.87 -96.02 -96.16 -96.30 -96.43 -96.56 -96.68 -96.79 -96.89 -96.98 -97.06 -97.14 -97.20 -97.25 -97.30 -97.33 -97.35 -97.36 -97.36 -97.35 -97.34 -97.31 -97.27 -97.22 -97.16 -97.10 -97.03 -96.95 -96.86 -96.77 -96.67 -96.56 -96.45 -96.34 -96.22 -96.10 -95.97 -95.84 -95.72 -95.59 -95.46 -95.33 -95.19 -95.06 -94.94 -94.81 -94.68 -94.55 -94.43 -94.31 -94.19 -94.08 -93.96 -93.85 -93.74 -93.64 -93.53 -93.43 -93.33 -93.24 -93.15 -93.06 -92.97 -92.88 -92.80 -92.72 -92.64 -92.56 -92.49 -92.42 -92.34 -92.27 -92.21
-104.66 -104.57 -104.48 -104.38 -104.29 -104.19 -104.08 -103.98 -103.87 -103.76 -103.65 -103.54 -103.42 -103.30 -103.17 -103.05 -102.91 -102.78 -102.64 -102.50 -102.35 -102.20 -102.05 -101.90 -101.74 -101.57 -101.41 -101.24 -101.07 -100.90 -100.72 -100.55 -100.37 -100.20 -100.02 -99.84 -99.67 -99.49 -99.32 -99.15 -98.98 -98.81 -98.65 -98.50 -98.34 -98.20 -98.05 -97.92 -97.78 -97.66 -97.54 -97.42 -97.31 -97.20 -97.10 -97.01 -96.91 -96.83 -96.74 -96.66 -96.58 -96.50 -96.42 -96.35 -96.27 -96.19 -96.11 -96.03 -95.95 -95.87 -95.78 -95.69 -95.60 -95.50 -95.41 -95.31 -95.20 -95.10 -94.99 -94.88 -94.77 -94.65 -94.54 -94.43 -94.32 -94.21 -94.10 -94.00 -93.90 -93.80 -93.71 -93.63 -93.55 -93.48 -93.42 -93.37 -93.32 -93.28 -93.26 -93.24 -93.23 -93.23 -93.24 -93.26 -93.29 -93.34 -93.39 -93.45 -93.52 -93.60 -93.68 -93.78 -93.88 -93.99 -94.11 -94.24 -94.37 -94.50 -94.64 -94.78 -94.92 -95.07 -95.22 -95.36 -95.51 -95.66 -95.80 -95.94 -96.07 -96.20 -96.33 -96.45 -96.56 -96.67 -96.76 -96.85 -96.94 -97.01 -97.07 -97.13 -97.17 -97.21 -97.23 -97.25 -97.25 -97.25 -97.24 -97.21 -97.18 -97.14 -97.09 -97.04 -96.97 -96.90 -96.82 -96.73 -96.64 -96.54 -96.44 -96.33 -96.22 -96.10 -95.99 -95.86 -95.74 -95.62 -95.49 -95.37 -95.24 -95.11 -94.99 -94.86 -94.74 -94.61 -94.49 -94.37 -94.26 -94.14 -94.03 -93.92 -93.81 -93.70 -93.60 -93.50 -93.40 -93.30 -93.21 -93.12 -93.03 -92.95 -92.86 -92.78 -92.70 -92.62 -92.55 -92.47 -92.40 -92.33 -92.26 -92.19
-104.65 -104.56 -104.47 -104.38 -104.28 -104.18 -104.08 -103.98 -103.87 -103.76 -103.65 -103.54 -103.42 -103.30 -103.17 -103.05 -102.91 -102.78 -102.64 -102.49 -102.35 -102.20 -102.04 -101.88 -101.72 -101.56 -101.39 -101.22 -101.04 -100.87 -100.69 -100.51 -100.33 -100.14 -99.96 -99.78 -99.60 -99.42 -99.24 -99.07 -98.89 -98.73 -98.56 -98.40 -98.24 -98.09 -97.95 -97.81 -97.67 -97.55 -97.42 -97.31 -97.20 -97.10 -97.00 -96.91 -96.82 -96.74 -96.66 -96.58 -96.51 -96.44 -96.38 -96.31 -96.25 -96.18 -96.12 -96.05 -95.99 -95.92 -95.85 -95.77 -95.70 -95.62 -95.54 -95.45 -95.37 -95.28 -95.19 -95.09 -95.00 -94.90 -94.80 -94.70 -94.60 -94.51 -94.41 -94.32 -94.23 -94.14 -94.06 -93.99 -93.91 -93.85 -93.79 -93.74 -93.69 -93.66 -93.63 -93.61 -93.60 -93.60 -93.60 -93.62 -93.64 -93.68 -93.72 -93.77 -93.83 -93.90 -93.98 -94.06 -94.16 -94.25 -94.36 -94.47 -94.59 -94.71 -94.83 -94.96 -95.09 -95.22 -95.35 -95.49 -95.62 -95.75 -95.88 -96.01 -96.13 -96.25 -96.36 -96.47 -96.57 -96.66 -96.75 -96.83 -96.90 -96.96 -97.02 -97.06 -97.10 -97.13 -97.15 -97.16 -97.16 -97.15 -97.13 -97.10 -97.07 -97.03 -96.97 -96.92 -96.85 -96.78 -96.70 -96.61 -96.52 -96.42 -96.32 -96.22 -96.11 -96.00 -95.88 -95.77 -95.65 -95.53 -95.40 -95.28 -95.16 -95.04 -94.91 -94.79 -94.67 -94.55 -94.43 -94.32 -94.20 -94.09 -93.98 -93.87 -93.77 -93.67 -93.56 -93.47 -93.37 -93.28 -93.18 -93.10 -93.01 -92.92 -92.84 -92.76 -92.68 -92.60 -92.53 -92.46 -92.38 -92.31 -92.24 -92.18
-104.65 -104.56 -104.47 -104.37 -104.28 -104.18 -104.08 -103.98 -103.87 -103.76 -103.65 -103.54 -103.42 -103.30 -103.17 -103.04 -102.91 -102.77 -102.63 -102.48 -102.33 -102.18 -102.02 -101.86 -101.70 -101.53 -101.36 -101.18 -101.00 -100.82 -100.64 -100.45 -100.26 -100.08 -99.89 -99.70 -99.51 -99.33 -99.14 -98.96 -98.78 -98.61 -98.44 -98.27 -98.11 -97.95 -97.80 -97.66 -97.52 -97.39 -97.27 -97.15 -97.05 -96.94 -96.85 -96.76 -96.68 -96.60 -96.53 -96.46 -96.40 -96.34 -96.28 -96.23 -96.17 -96.12 -96.07 -96.02 -95.97 -95.92 -95.86 -95.81 -95.75 -95.69 -95.62 -95.56 -95.49 -95.41 -95.34 -95.26 -95.18 -95.10 -95.02 -94.94 -94.85 -94.77 -94.69 -94.61 -94.53 -94.45 -94.38 -94.31 -94.25 -94.19 -94.13 -94.09 -94.05 -94.01 -93.98 -93.96 -93.95 -93.94 -93.95 -93.96 -93.98 -94.00 -94.04 -94.08 -94.13 -94.19 -94.26 -94.33 -94.41 -94.50 -94.59 -94.69 -94.79 -94.90 -95.01 -95.13 -95.25 -95.36 -95.48 -95.60 -95.72 -95.84 -95.96 -96.07 -96.18 -96.29 -96.39 -96.49 -96.58 -96.66 -96.74 -96.81 -96.87 -96.92 -96.97 -97.00 -97.03 -97.05 -97.07 -97.07 -97.07 -97.05 -97.03 -97.00 -96.96 -96.92 -96.86 -96.80 -96.74 -96.66 -96.59 -96.50 -96.41 -96.32 -96.22 -96.11 -96.01 -95.90 -95.79 -95.67 -95.56 -95.44 -95.32 -95.20 -95.08 -94.96 -94.84 -94.73 -94.61 -94.49 -94.38 -94.27 -94.16 -94.05 -93.94 -93.83 -93.73 -93.63 -93.53 -93.43 -93.34 -93.25 -93.16 -93.07 -92.99 -92.90 -92.82 -92.74 -92.66 -92.59 -92.51 -92.44 -92.37 -92.30 -92.23 -92.16
-104.64 -104.55 -104.46 -104.37 -104.27 -104.17 -104.07 -103.97 -103.87 -103.76 -103.64 -103.53 -103.41 -103.29 -103.16 -103.03 -102.90 -102.76 -102.61 -102.47 -102.31 -102.16 -102.00 -101.83 -101.66 -101.49 -101.31 -101.13 -100.95 -100.76 -100.57 -100.38 -100.18 -99.99 -99.79 -99.60 -99.40 -99.21 -99.01 -98.83 -98.64 -98.46 -98.28 -98.10 -97.94 -97.77 -97.62 -97.47 -97.33 -97.20 -97.07 -96.95 -96.84 -96.74 -96.65 -96.56 -96.48 -96.41 -96.34 -96.28 -96.23 -96.18 -96.13 -96.09 -96.05 -96.01 -95.97 -95.93 -95.90 -95.86 -95.82 -95.78 -95.74 -95.70 -95.65 -95.61 -95.56 -95.50 -95.44 -95.39 -95.32 -95.26 -95.20 -95.13 -95.06 -94.99 -94.93 -94.86 -94.79 -94.73 -94.67 -94.61 -94.55 -94.50 -94.45 -94.41 -94.37 -94.34 -94.31 -94.29 -94.28 -94.27 -94.27 -94.27 -94.29 -94.31 -94.34 -94.37 -94.41 -94.46 -94.52 -94.58 -94.65 -94.73 -94.81 -94.89 -94.99 -95.08 -95.18 -95.28 -95.39 -95.50 -95.60 -95.71 -95.82 -95.93 -96.03 -96.13 -96.23 -96.33 -96.42 -96.50 -96.58 -96.66 -96.72 -96.78 -96.84 -96.88 -96.92 -96.95 -96.97 -96.99 -96.99 -96.99 -96.98 -96.96 -96.94 -96.90 -96.86 -96.82 -96.76 -96.70 -96.63 -96.56 -96.48 -96.40 -96.31 -96.21 -96.12 -96.02 -95.91 -95.80 -95.70 -95.58 -95.47 -95.36 -95.24 -95.13 -95.01 -94.89 -94.78 -94.66 -94.55 -94.44 -94.33 -94.22 -94.11 -94.00 -93.90 -93.80 -93.69 -93.60 -93.50 -93.40 -93.31 -93.22 -93.13 -93.05 -92.96 -92.88 -92.80 -92.72 -92.64 -92.57 -92.50 -92.42 -92.35 -92.28 -92.21 -92.14
-104.63 -104.54 -104.45 -104.36 -104.26 -104.17 -104.07 -103.96 -103.86 -103.75 -103.64 -103.52 -103.40 -103.28 -103.15 -103.02 -102.88 -102.74 -102.59 -102.44 -102.29 -102.13 -101.96 -101.79 -101.62 -101.44 -101.25 -101.07 -100.88 -100.68 -100.48 -100.28 -100.08 -99.88 -99.67 -99.47 -99.26 -99.06 -98.86 -98.66 -98.47 -98.27 -98.09 -97.90 -97.73 -97.56 -97.40 -97.24 -97.09 -96.96 -96.83 -96.70 -96.59 -96.49 -96.39 -96.31 -96.23 -96.16 -96.10 -96.05 -96.00 -95.95 -95.92 -95.89 -95.86 -95.83 -95.81 -95.79 -95.77 -95.75 -95.73 -95.71 -95.68 -95.66 -95.63 -95.60 -95.57 -95.54 -95.50 -95.46 -95.42 -95.37 -95.33 -95.28 -95.23 -95.17 -95.12 -95.07 -95.02 -94.96 -94.91 -94.86 -94.82 -94.77 -94.73 -94.70 -94.66 -94.63 -94.61 -94.59 -94.57 -94.56 -94.56 -94.56 -94.57 -94.59 -94.61 -94.64 -94.67 -94.71 -94.76 -94.81 -94.87 -94.93 -95.00 -95.08 -95.16 -95.24 -95.33 -95.42 -95.52 -95.61 -95.71 -95.81 -95.91 -96.00 -96.10 -96.19 -96.28 -96.36 -96.44 -96.52 -96.59 -96.66 -96.71 -96.77 -96.81 -96.85 -96.88 -96.90 -96.92 -96.92 -96.92 -96.92 -96.90 -96.88 -96.85 -96.81 -96.77 -96.72 -96.66 -96.60 -96.53 -96.46 -96.38 -96.30 -96.21 -96.12 -96.02 -95.92 -95.82 -95.72 -95.61 -95.50 -95.39 -95.28 -95.17 -95.05 -94.94 -94.83 -94.72 -94.61 -94.49 -94.38 -94.28 -94.17 -94.06 -93.96 -93.86 -93.76 -93.66 -93.56 -93.47 -93.38 -93.29 -93.20 -93.11 -93.02 -92.94 -92.86 -92.78 -92.70 -92.63 -92.55 -92.48 -92.41 -92.33 -92.27 -92.20 -92.13
-104.62 -104.53 -104.44 -104.35 -104.25 -104.16 -104.06 -103.95 -103.85 -103.74 -103.62 -103.51 -103.39 -103.26 -103.13 -103.00 -102.86 -102.71 -102.56 -102.41 -102.25 -102.08 -101.91 -101.74 -101.56 -101.37 -101.18 -100.99 -100.79 -100.59 -100.38 -100.17 -99.96 -99.75 -99.53 -99.32 -99.10 -98.89 -98.68 -98.47 -98.26 -98.06 -97.86 -97.67 -97.48 -97.30 -97.13 -96.97 -96.81 -96.67 -96.53 -96.41 -96.29 -96.18 -96.09 -96.00 -95.93 -95.86 -95.80 -95.75 -95.71 -95.68 -95.65 -95.63 -95.61 -95.60 -95.59 -95.58 -95.58 -95.57 -95.57 -95.57 -95.56 -95.56 -95.55 -95.54 -95.53 -95.52 -95.50 -95.48 -95.46 -95.44 -95.41 -95.38 -95.35 -95.31 -95.27 -95.24 -95.20 -95.16 -95.12 -95.09 -95.05 -95.01 -94.98 -94.95 -94.92 -94.90 -94.87 -94.86 -94.84 -94.83 -94.83 -94.82 -94.83 -94.84 -94.85 -94.87 -94.90 -94.93 -94.97 -95.01 -95.06 -95.11 -95.17 -95.24 -95.31 -95.38 -95.46 -95.54 -95.63 -95.71 -95.80 -95.89 -95.98 -96.07 -96.15 -96.23 -96.32 -96.39 -96.46 -96.53 -96.59 -96.65 -96.70 -96.74 -96.78 -96.81 -96.84 -96.85 -96.86 -96.86 -96.86 -96.85 -96.83 -96.80 -96.77 -96.73 -96.68 -96.63 -96.57 -96.51 -96.44 -96.37 -96.29 -96.20 -96.12 -96.03 -95.93 -95.83 -95.73 -95.63 -95.53 -95.42 -95.31 -95.20 -95.10 -94.99 -94.88 -94.77 -94.66 -94.55 -94.44 -94.33 -94.23 -94.12 -94.02 -93.92 -93.82 -93.72 -93.63 -93.53 -93.44 -93.35 -93.26 -93.17 -93.09 -93.00 -92.92 -92.84 -92.76 -92.68 -92.61 -92.53 -92.46 -92.39 -92.32 -92.25 -92.18 -92.11
-104.61 -104.52 -104.43 -104.34 -104.24 -104.14 -104.04 -103.94 -103.83 -103.72 -103.61 -103.49 -103.37 -103.24 -103.11 -102.97 -102.83 -102.68 -102.53 -102.37 -102.20 -102.03 -101.86 -101.68 -101.49 -101.30 -101.10 -100.90 -100.69 -100.48 -100.26 -100.04 -99.82 -99.59 -99.37 -99.14 -98.91 -98.69 -98.46 -98.24 -98.02 -97.81 -97.60 -97.39 -97.19 -97.00 -96.82 -96.65 -96.49 -96.33 -96.19 -96.06 -95.94 -95.83 -95.73 -95.64 -95.56 -95.50 -95.44 -95.40 -95.36 -95.34 -95.32 -95.30 -95.30 -95.30 -95.30 -95.31 -95.32 -95.34 -95.35 -95.37 -95.39 -95.40 -95.42 -95.43 -95.44 -95.45 -95.45 -95.45 -95.45 -95.45 -95.44 -95.43 -95.42 -95.40 -95.38 -95.36 -95.34 -95.32 -95.29 -95.27 -95.24 -95.22 -95.19 -95.17 -95.15 -95.13 -95.11 -95.09 -95.08 -95.07 -95.06 -95.05 -95.05 -95.06 -95.07 -95.08 -95.10 -95.12 -95.15 -95.18 -95.22 -95.27 -95.32 -95.37 -95.43 -95.50 -95.57 -95.64 -95.71 -95.79 -95.87 -95.95 -96.03 -96.11 -96.19 -96.27 -96.34 -96.41 -96.47 -96.54 -96.59 -96.64 -96.68 -96.72 -96.75 -96.78 -96.79 -96.80 -96.81 -96.80 -96.79 -96.78 -96.75 -96.72 -96.69 -96.65 -96.60 -96.54 -96.48 -96.42 -96.35 -96.28 -96.20 -96.11 -96.03 -95.94 -95.85 -95.75 -95.65 -95.55 -95.45 -95.34 -95.24 -95.13 -95.03 -94.92 -94.81 -94.71 -94.60 -94.49 -94.39 -94.28 -94.18 -94.08 -93.98 -93.88 -93.78 -93.69 -93.59 -93.50 -93.41 -93.32 -93.23 -93.15 -93.06 -92.98 -92.90 -92.82 -92.74 -92.66 -92.59 -92.52 -92.44 -92.37 -92.30 -92.23 -92.16 -92.10
-104.59 -104.50 -104.41 -104.32 -104.23 -104.13 -104.03 -103.92 -103.82 -103.70 -103.59 -103.47 -103.34 -103.21 -103.08 -102.94 -102.79 -102.64 -102.48 -102.32 -102.15 -101.98 -101.79 -101.60 -101.41 -101.21 -101.00 -100.79 -100.57 -100.35 -100.12 -99.89 -99.66 -99.42 -99.18 -98.94 -98.70 -98.46 -98.22 -97.98 -97.75 -97.52 -97.30 -97.08 -96.87 -96.66 -96.47 -96.29 -96.11 -95.95 -95.80 -95.66 -95.53 -95.42 -95.31 -95.22 -95.15 -95.08 -95.03 -94.99 -94.95 -94.93 -94.92 -94.92 -94.93 -94.94 -94.96 -94.98 -95.01 -95.04 -95.08 -95.11 -95.15 -95.19 -95.22 -95.26 -95.29 -95.32 -95.35 -95.37 -95.39 -95.41 -95.42 -95.44 -95.44 -95.45 -95.45 -95.44 -95.44 -95.43 -95.42 -95.41 -95.40 -95.38 -95.37 -95.35 -95.34 -95.32 -95.31 -95.29 -95.28 -95.27 -95.26 -95.25 -95.25 -95.24 -95.25 -95.25 -95.26 -95.28 -95.30 -95.32 -95.35 -95.39 -95.43 -95.47 -95.52 -95.58 -95.64 -95.71 -95.78 -95.85 -95.92 -95.99 -96.07 -96.14 -96.21 -96.29 -96.35 -96.42 -96.48 -96.53 -96.58 -96.62 -96.66 -96.69 -96.72 -96.74 -96.75 -96.75 -96.75 -96.74 -96.73 -96.71 -96.68 -96.65 -96.61 -96.57 -96.52 -96.46 -96.40 -96.33 -96.26 -96.19 -96.11 -96.03 -95.94 -95.85 -95.76 -95.67 -95.57 -95.47 -95.37 -95.27 -95.17 -95.06 -94.96 -94.86 -94.75 -94.65 -94.54 -94.44 -94.34 -94.24 -94.13 -94.04 -93.94 -93.84 -93.74 -93.65 -93.56 -93.47 -93.38 -93.29 -93.20 -93.12 -93.04 -92.96 -92.88 -92.80 -92.72 -92.64 -92.57 -92.50 -92.42 -92.35 -92.28 -92.22 -92.15 -92.08
-104.58 -104.49 -104.40 -104.31 -104.21 -104.11 -104.01 -103.91 -103.80 -103.68 -103.57 -103.44 -103.32 -103.18 -103.05 -102.90 -102.75 -102.60 -102.43 -102.27 -102.09 -101.91 -101.72 -101.52 -101.32 -101.11 -100.89 -100.67 -100.44 -100.21 -99.97 -99.72 -99.47 -99.22 -98.97 -98.71 -98.46 -98.20 -97.95 -97.69 -97.45 -97.20 -96.96 -96.73 -96.50 -96.28 -96.08 -95.88 -95.69 -95.52 -95.36 -95.21 -95.07 -94.95 -94.84 -94.75 -94.67 -94.60 -94.55 -94.51 -94.49 -94.47 -94.47 -94.48 -94.49 -94.52 -94.55 -94.59 -94.63 -94.68 -94.74 -94.79 -94.85 -94.91 -94.97 -95.03 -95.08 -95.13 -95.19 -95.23 -95.28 -95.32 -95.36 -95.39 -95.42 -95.44 -95.46 -95.48 -95.50 -95.50 -95.51 -95.51 -95.51 -95.51 -95.51 -95.50 -95.49 -95.48 -95.47 -95.46 -95.45 -95.43 -95.42 -95.41 -95.40 -95.40 -95.39 -95.39 -95.39 -95.40 -95.41 -95.42 -95.44 -95.47 -95.50 -95.54 -95.58 -95.63 -95.69 -95.75 -95.81 -95.87 -95.94 -96.01 -96.08 -96.15 -96.22 -96.29 -96.35 -96.41 -96.46 -96.51 -96.56 -96.60 -96.63 -96.66 -96.68 -96.69 -96.70 -96.70 -96.70 -96.69 -96.67 -96.64 -96.61 -96.58 -96.54 -96.49 -96.44 -96.38 -96.32 -96.25 -96.18 -96.11 -96.03 -95.95 -95.86 -95.77 -95.68 -95.59 -95.49 -95.40 -95.30 -95.20 -95.10 -95.00 -94.90 -94.79 -94.69 -94.59 -94.49 -94.39 -94.29 -94.19 -94.09 -93.99 -93.90 -93.80 -93.71 -93.62 -93.53 -93.44 -93.35 -93.26 -93.18 -93.09 -93.01 -92.93 -92.85 -92.78 -92.70 -92.62 -92.55 -92.48 -92.41 -92.34 -92.27 -92.20 -92.13 -92.06
-104.56 -104.47 -104.38 -104.29 -104.19 -104.09 -103.99 -103.88 -103.77 -103.66 -103.54 -103.41 -103.28 -103.15 -103.01 -102.86 -102.71 -102.54 -102.38 -102.20 -102.02 -101.83 -101.63 -101.43 -101.21 -100.99 -100.77 -100.53 -100.29 -100.04 -99.79 -99.53 -99.27 -99.00 -98.73 -98.46 -98.19 -97.92 -97.65 -97.38 -97.11 -96.85 -96.59 -96.34 -96.10 -95.86 -95.64 -95.43 -95.23 -95.04 -94.87 -94.71 -94.56 -94.43 -94.32 -94.22 -94.14 -94.07 -94.02 -93.98 -93.96 -93.95 -93.95 -93.97 -94.00 -94.03 -94.08 -94.13 -94.20 -94.26 -94.34 -94.41 -94.49 -94.57 -94.66 -94.74 -94.82 -94.90 -94.97 -95.04 -95.11 -95.18 -95.24 -95.30 -95.35 -95.39 -95.44 -95.47 -95.51 -95.53 -95.56 -95.58 -95.59 -95.60 -95.61 -95.61 -95.61 -95.60 -95.60 -95.59 -95.58 -95.56 -95.55 -95.54 -95.52 -95.51 -95.50 -95.49 -95.48 -95.48 -95.48 -95.49 -95.50 -95.52 -95.54 -95.57 -95.61 -95.65 -95.70 -95.75 -95.81 -95.87 -95.94 -96.00 -96.07 -96.14 -96.20 -96.27 -96.33 -96.39 -96.44 -96.49 -96.53 -96.57 -96.60 -96.62 -96.64 -96.65 -96.65 -96.65 -96.64 -96.63 -96.60 -96.58 -96.54 -96.51 -96.46 -96.41 -96.36 -96.30 -96.24 -96.17 -96.10 -96.02 -95.95 -95.86 -95.78 -95.69 -95.60 -95.51 -95.42 -95.32 -95.23 -95.13 -95.03 -94.93 -94.83 -94.73 -94.63 -94.53 -94.44 -94.34 -94.24 -94.14 -94.05 -93.95 -93.86 -93.76 -93.67 -93.58 -93.49 -93.41 -93.32 -93.23 -93.15 -93.07 -92.99 -92.91 -92.83 -92.75 -92.68 -92.60 -92.53 -92.46 -92.39 -92.32 -92.25 -92.18 -92.11 -92.04
-104.54 -104.45 -104.36 -104.27 -104.17 -104.07 -103.97 -103.86 -103.75 -103.63 -103.51 -103.38 -103.25 -103.11 -102.96 -102.81 -102.65 -102.49 -102.31 -102.13 -101.94 -101.74 -101.54 -101.32 -101.10 -100.87 -100.63 -100.38 -100.13 -99.87 -99.60 -99.33 -99.05 -98.76 -98.48 -98.19 -97.90 -97.61 -97.31 -97.03 -96.74 -96.46 -96.18 -95.91 -95.65 -95.40 -95.16 -94.93 -94.72 -94.51 -94.33 -94.16 -94.00 -93.86 -93.74 -93.64 -93.55 -93.48 -93.43 -93.39 -93.37 -93.37 -93.38 -93.40 -93.44 -93.49 -93.55 -93.62 -93.70 -93.79 -93.88 -93.98 -94.08 -94.18 -94.29 -94.39 -94.50 -94.60 -94.70 -94.80 -94.90 -94.99 -95.07 -95.15 -95.23 -95.30 -95.36 -95.42 -95.47 -95.52 -95.56 -95.60 -95.63 -95.65 -95.67 -95.68 -95.69 -95.69 -95.69 -95.68 -95.67 -95.66 -95.64 -95.62 -95.60 -95.58 -95.56 -95.55 -95.53 -95.52 -95.51 -95.51 -95.51 -95.52 -95.54 -95.56 -95.59 -95.63 -95.67 -95.72 -95.77 -95.83 -95.90 -95.96 -96.03 -96.10 -96.16 -96.23 -96.29 -96.35 -96.40 -96.45 -96.49 -96.52 -96.55 -96.57 -96.59 -96.60 -96.60 -96.59 -96.58 -96.56 -96.54 -96.51 -96.47 -96.43 -96.39 -96.34 -96.28 -96.22 -96.16 -96.09 -96.02 -95.94 -95.87 -95.79 -95.70 -95.62 -95.53 -95.44 -95.35 -95.25 -95.16 -95.06 -94.97 -94.87 -94.77 -94.67 -94.58 -94.48 -94.38 -94.29 -94.19 -94.10 -94.00 -93.91 -93.82 -93.73 -93.64 -93.55 -93.46 -93.37 -93.29 -93.21 -93.12 -93.04 -92.96 -92.89 -92.81 -92.73 -92.66 -92.58 -92.51 -92.44 -92.37 -92.30 -92.23 -92.16 -92.09 -92.03
-104.52 -104.43 -104.34 -104.25 -104.15 -104.05 -103.94 -103.83 -103.72 -103.60 -103.47 -103.34 -103.21 -103.06 -102.91 -102.76 -102.59 -102.42 -102.24 -102.05 -101.85 -101.65 -101.43 -101.21 -100.97 -100.73 -100.48 -100.22 -99.95 -99.67 -99.39 -99.10 -98.80 -98.50 -98.20 -97.89 -97.58 -97.27 -96.96 -96.65 -96.34 -96.04 -95.74 -95.45 -95.17 -94.90 -94.64 -94.40 -94.16 -93.94 -93.74 -93.56 -93.39 -93.24 -93.11 -93.00 -92.91 -92.83 -92.78 -92.74 -92.73 -92.73 -92.74 -92.78 -92.82 -92.89 -92.96 -93.05 -93.14 -93.25 -93.36 -93.48 -93.60 -93.73 -93.86 -93.99 -94.12 -94.25 -94.38 -94.51 -94.63 -94.74 -94.86 -94.96 -95.06 -95.16 -95.25 -95.33 -95.40 -95.47 -95.53 -95.58 -95.62 -95.66 -95.69 -95.71 -95.73 -95.74 -95.74 -95.73 -95.72 -95.71 -95.69 -95.67 -95.64 -95.62 -95.59 -95.56 -95.54 -95.51 -95.50 -95.48 -95.48 -95.48 -95.49 -95.50 -95.53 -95.56 -95.60 -95.65 -95.70 -95.76 -95.83 -95.89 -95.96 -96.03 -96.10 -96.16 -96.23 -96.29 -96.34 -96.39 -96.43 -96.47 -96.50 -96.52 -96.53 -96.54 -96.54 -96.53 -96.52 -96.50 -96.47 -96.44 -96.40 -96.36 -96.31 -96.26 -96.21 -96.15 -96.08 -96.01 -95.94 -95.87 -95.79 -95.71 -95.63 -95.54 -95.45 -95.36 -95.27 -95.18 -95.09 -95.00 -94.90 -94.81 -94.71 -94.62 -94.52 -94.43 -94.33 -94.24 -94.14 -94.05 -93.96 -93.87 -93.78 -93.69 -93.60 -93.51 -93.43 -93.34 -93.26 -93.18 -93.10 -93.02 -92.94 -92.86 -92.78 -92.71 -92.64 -92.56 -92.49 -92.42 -92.35 -92.28 -92.21 -92.14 -92.07 -92.01
-104.50 -104.41 -104.32 -104.22 -104.12 -104.02 -103.91 -103.80 -103.69 -103.56 -103.44 -103.30 -103.16 -103.02 -102.86 -102.70 -102.53 -102.35 -102.16 -101.97 -101.76 -101.54 -101.32 -101.08 -100.84 -100.58 -100.31 -100.04 -99.76 -99.46 -99.16 -98.86 -98.54 -98.22 -97.90 -97.57 -97.24 -96.90 -96.57 -96.24 -95.91 -95.59 -95.27 -94.96 -94.65 -94.36 -94.08 -93.82 -93.57 -93.33 -93.11 -92.91 -92.73 -92.57 -92.43 -92.31 -92.21 -92.13 -92.08 -92.04 -92.03 -92.03 -92.05 -92.09 -92.15 -92.23 -92.31 -92.42 -92.53 -92.65 -92.79 -92.93 -93.08 -93.23 -93.38 -93.54 -93.70 -93.85 -94.01 -94.16 -94.31 -94.46 -94.60 -94.73 -94.85 -94.97 -95.09 -95.19 -95.29 -95.37 -95.45 -95.52 -95.58 -95.63 -95.67 -95.71 -95.73 -95.75 -95.75 -95.75 -95.74 -95.72 -95.70 -95.67 -95.64 -95.61 -95.57 -95.53 -95.50 -95.46 -95.44 -95.41 -95.40 -95.39 -95.39 -95.40 -95.42 -95.45 -95.49 -95.53 -95.59 -95.65 -95.72 -95.79 -95.86 -95.93 -96.01 -96.08 -96.14 -96.21 -96.27 -96.32 -96.36 -96.40 -96.43 -96.45 -96.47 -96.47 -96.47 -96.47 -96.45 -96.43 -96.40 -96.37 -96.33 -96.29 -96.24 -96.19 -96.13 -96.07 -96.00 -95.94 -95.86 -95.79 -95.71 -95.63 -95.55 -95.47 -95.38 -95.29 -95.20 -95.11 -95.02 -94.93 -94.84 -94.75 -94.65 -94.56 -94.47 -94.37 -94.28 -94.19 -94.10 -94.01 -93.92 -93.83 -93.74 -93.65 -93.56 -93.48 -93.40 -93.31 -93.23 -93.15 -93.07 -92.99 -92.91 -92.84 -92.76 -92.69 -92.61 -92.54 -92.47 -92.40 -92.33 -92.26 -92.19 -92.12 -92.06 -91.99
-104.48 -104.39 -104.29 -104.20 -104.10 -103.99 -103.88 -103.77 -103.65 -103.53 -103.40 -103.26 -103.11 -102.96 -102.80 -102.64 -102.46 -102.27 -102.08 -101.87 -101.66 -101.43 -101.19 -100.95 -100.69 -100.42 -100.14 -99.85 -99.55 -99.24 -98.92 -98.60 -98.26 -97.92 -97.57 -97.22 -96.87 -96.51 -96.16 -95.80 -95.45 -95.10 -94.76 -94.43 -94.10 -93.79 -93.49 -93.20 -92.93 -92.68 -92.44 -92.23 -92.03 -91.86 -91.70 -91.58 -91.47 -91.39 -91.33 -91.29 -91.27 -91.28 -91.31 -91.36 -91.43 -91.51 -91.61 -91.73 -91.86 -92.01 -92.16 -92.32 -92.49 -92.67 -92.85 -93.04 -93.22 -93.41 -93.59 -93.77 -93.95 -94.12 -94.29 -94.45 -94.60 -94.75 -94.89 -95.01 -95.13 -95.24 -95.34 -95.43 -95.50 -95.57 -95.62 -95.67 -95.70 -95.72 -95.73 -95.73 -95.72 -95.70 -95.67 -95.64 -95.60 -95.55 -95.51 -95.46 -95.41 -95.37 -95.33 -95.29 -95.27 -95.25 -95.24 -95.25 -95.26 -95.29 -95.33 -95.38 -95.43 -95.50 -95.57 -95.64 -95.72 -95.80 -95.88 -95.96 -96.04 -96.11 -96.17 -96.23 -96.28 -96.32 -96.35 -96.38 -96.40 -96.40 -96.41 -96.40 -96.38 -96.36 -96.33 -96.30 -96.26 -96.22 -96.17 -96.11 -96.06 -95.99 -95.93 -95.86 -95.79 -95.71 -95.64 -95.56 -95.48 -95.39 -95.31 -95.22 -95.14 -95.05 -94.96 -94.87 -94.78 -94.69 -94.60 -94.50 -94.41 -94.32 -94.23 -94.14 -94.05 -93.96 -93.87 -93.79 -93.70 -93.61 -93.53 -93.45 -93.36 -93.28 -93.20 -93.12 -93.04 -92.96 -92.89 -92.81 -92.74 -92.66 -92.59 -92.52 -92.45 -92.38 -92.31 -92.24 -92.17 -92.10 -92.04 -91.97
-104.45 -104.36 -104.27 -104.17 -104.07 -103.96 -103.85 -103.74 -103.61 -103.49 -103.35 -103.21 -103.06 -102.91 -102.74 -102.57 -102.38 -102.19 -101.99 -101.77 -101.55 -101.31 -101.06 -100.80 -100.53 -100.25 -99.95 -99.65 -99.33 -99.00 -98.67 -98.32 -97.96 -97.60 -97.23 -96.86 -96.48 -96.10 -95.72 -95.34 -94.97 -94.59 -94.23 -93.87 -93.52 -93.18 -92.86 -92.55 -92.26 -91.98 -91.73 -91.50 -91.29 -91.10 -90.93 -90.80 -90.68 -90.59 -90.53 -90.49 -90.47 -90.48 -90.52 -90.57 -90.65 -90.75 -90.86 -91.00 -91.15 -91.31 -91.48 -91.67 -91.87 -92.07 -92.27 -92.49 -92.70 -92.91 -93.12 -93.34 -93.54 -93.74 -93.94 -94.13 -94.31 -94.48 -94.65 -94.80 -94.94 -95.07 -95.19 -95.30 -95.39 -95.47 -95.54 -95.59 -95.63 -95.66 -95.67 -95.67 -95.66 -95.64 -95.61 -95.56 -95.51 -95.46 -95.40 -95.34 -95.28 -95.22 -95.17 -95.12 -95.09 -95.06 -95.05 -95.05 -95.06 -95.08 -95.12 -95.17 -95.23 -95.30 -95.38 -95.46 -95.55 -95.64 -95.73 -95.82 -95.91 -95.99 -96.06 -96.12 -96.18 -96.23 -96.27 -96.30 -96.32 -96.33 -96.33 -96.32 -96.31 -96.29 -96.26 -96.23 -96.19 -96.14 -96.09 -96.04 -95.98 -95.92 -95.85 -95.79 -95.71 -95.64 -95.56 -95.49 -95.41 -95.32 -95.24 -95.16 -95.07 -94.98 -94.90 -94.81 -94.72 -94.63 -94.54 -94.45 -94.36 -94.27 -94.18 -94.09 -94.01 -93.92 -93.83 -93.75 -93.66 -93.58 -93.49 -93.41 -93.33 -93.25 -93.17 -93.09 -93.01 -92.94 -92.86 -92.79 -92.71 -92.64 -92.57 -92.50 -92.43 -92.36 -92.29 -92.22 -92.15 -92.08 -92.02 -91.95
-104.43 -104.33 -104.24 -104.14 -104.04 -103.93 -103.82 -103.70 -103.57 -103.44 -103.31 -103.16 -103.01 -102.85 -102.67 -102.49 -102.30 -102.10 -101.89 -101.67 -101.43 -101.18 -100.92 -100.65 -100.36 -100.07 -99.76 -99.43 -99.10 -98.75 -98.39 -98.03 -97.65 -97.27 -96.87 -96.48 -96.08 -95.67 -95.27 -94.86 -94.46 -94.06 -93.67 -93.28 -92.91 -92.55 -92.20 -91.87 -91.55 -91.26 -90.98 -90.73 -90.50 -90.30 -90.12 -89.97 -89.85 -89.75 -89.69 -89.64 -89.63 -89.64 -89.68 -89.74 -89.83 -89.94 -90.07 -90.22 -90.38 -90.57 -90.76 -90.97 -91.19 -91.42 -91.65 -91.89 -92.13 -92.38 -92.62 -92.86 -93.09 -93.33 -93.55 -93.77 -93.98 -94.18 -94.37 -94.55 -94.71 -94.87 -95.01 -95.13 -95.24 -95.34 -95.42 -95.48 -95.53 -95.56 -95.58 -95.58 -95.57 -95.54 -95.50 -95.45 -95.39 -95.32 -95.25 -95.17 -95.10 -95.03 -94.96 -94.90 -94.86 -94.82 -94.80 -94.79 -94.80 -94.82 -94.86 -94.92 -94.98 -95.06 -95.15 -95.25 -95.35 -95.45 -95.55 -95.65 -95.75 -95.84 -95.93 -96.00 -96.07 -96.12 -96.17 -96.20 -96.23 -96.24 -96.25 -96.25 -96.24 -96.22 -96.19 -96.16 -96.12 -96.07 -96.02 -95.97 -95.91 -95.85 -95.78 -95.71 -95.64 -95.57 -95.49 -95.42 -95.34 -95.26 -95.17 -95.09 -95.00 -94.92 -94.83 -94.75 -94.66 -94.57 -94.48 -94.40 -94.31 -94.22 -94.13 -94.05 -93.96 -93.88 -93.79 -93.71 -93.62 -93.54 -93.46 -93.38 -93.30 -93.22 -93.14 -93.06 -92.99 -92.91 -92.83 -92.76 -92.69 -92.62 -92.54 -92.47 -92.40 -92.33 -92.26 -92.20 -92.13 -92.06 -92.00 -91.93
-104.40 -104.31 -104.21 -104.11 -104.01 -103.90 -103.78 -103.66 -103.53 -103.40 -103.26 -103.11 -102.95 -102.78 -102.60 -102.42 -102.22 -102.01 -101.79 -101.56 -101.31 -101.05 -100.78 -100.49 -100.19 -99.88 -99.55 -99.21 -98.86 -98.49 -98.11 -97.72 -97.32 -96.92 -96.50 -96.08 -95.65 -95.22 -94.79 -94.36 -93.93 -93.50 -93.08 -92.67 -92.27 -91.88 -91.51 -91.15 -90.81 -90.50 -90.20 -89.93 -89.69 -89.47 -89.28 -89.11 -88.98 -88.88 -88.80 -88.76 -88.74 -88.76 -88.80 -88.87 -88.97 -89.09 -89.23 -89.39 -89.58 -89.78 -90.00 -90.23 -90.48 -90.73 -90.99 -91.26 -91.53 -91.80 -92.07 -92.34 -92.61 -92.87 -93.13 -93.38 -93.61 -93.84 -94.06 -94.26 -94.45 -94.63 -94.79 -94.94 -95.06 -95.17 -95.27 -95.34 -95.40 -95.43 -95.45 -95.45 -95.43 -95.40 -95.35 -95.29 -95.22 -95.14 -95.05 -94.96 -94.87 -94.78 -94.70 -94.63 -94.57 -94.53 -94.50 -94.48 -94.49 -94.51 -94.56 -94.62 -94.69 -94.78 -94.88 -94.99 -95.10 -95.22 -95.34 -95.46 -95.57 -95.68 -95.77 -95.86 -95.94 -96.00 -96.06 -96.10 -96.13 -96.16 -96.17 -96.17 -96.16 -96.14 -96.11 -96.08 -96.04 -96.00 -95.95 -95.89 -95.84 -95.77 -95.71 -95.64 -95.57 -95.50 -95.42 -95.35 -95.27 -95.19 -95.11 -95.02 -94.94 -94.86 -94.77 -94.69 -94.60 -94.52 -94.43 -94.34 -94.26 -94.17 -94.09 -94.00 -93.92 -93.83 -93.75 -93.67 -93.59 -93.50 -93.42 -93.34 -93.26 -93.19 -93.11 -93.03 -92.96 -92.88 -92.81 -92.73 -92.66 -92.59 -92.52 -92.45 -92.38 -92.31 -92.24 -92.17 -92.11 -92.04 -91.97 -91.91
-104.37 -104.28 -104.18 -104.08 -103.97 -103.86 -103.74 -103.62 -103.49 -103.35 -103.20 -103.05 -102.89 -102.71 -102.53 -102.34 -102.13 -101.91 -101.68 -101.44 -101.18 -100.91 -100.62 -100.32 -100.01 -99.68 -99.34 -98.98 -98.60 -98.22 -97.82 -97.41 -96.99 -96.55 -96.11 -95.66 -95.21 -94.75 -94.29 -93.83 -93.38 -92.92 -92.47 -92.04 -91.61 -91.19 -90.79 -90.41 -90.05 -89.71 -89.39 -89.10 -88.84 -88.60 -88.40 -88.22 -88.08 -87.97 -87.89 -87.84 -87.82 -87.84 -87.88 -87.96 -88.07 -88.20 -88.35 -88.53 -88.74 -88.96 -89.20 -89.45 -89.72 -90.00 -90.29 -90.59 -90.89 -91.19 -91.49 -91.79 -92.09 -92.39 -92.67 -92.95 -93.22 -93.47 -93.72 -93.95 -94.16 -94.36 -94.55 -94.71 -94.86 -94.98 -95.09 -95.17 -95.23 -95.27 -95.29 -95.29 -95.27 -95.23 -95.17 -95.10 -95.01 -94.91 -94.81 -94.70 -94.60 -94.49 -94.39 -94.31 -94.24 -94.18 -94.14 -94.13 -94.13 -94.16 -94.20 -94.27 -94.35 -94.46 -94.57 -94.69 -94.83 -94.96 -95.10 -95.23 -95.36 -95.49 -95.60 -95.70 -95.79 -95.87 -95.94 -95.99 -96.03 -96.06 -96.07 -96.08 -96.07 -96.06 -96.04 -96.00 -95.97 -95.92 -95.87 -95.82 -95.76 -95.70 -95.64 -95.57 -95.50 -95.43 -95.35 -95.28 -95.20 -95.12 -95.04 -94.96 -94.88 -94.80 -94.71 -94.63 -94.54 -94.46 -94.38 -94.29 -94.21 -94.12 -94.04 -93.96 -93.87 -93.79 -93.71 -93.63 -93.55 -93.47 -93.39 -93.31 -93.23 -93.15 -93.08 -93.00 -92.93 -92.85 -92.78 -92.71 -92.64 -92.57 -92.50 -92.43 -92.36 -92.29 -92.22 -92.15 -92.09 -92.02 -91.95 -91.89
-104.34 -104.25 -104.15 -104.05 -103.94 -103.82 -103.70 -103.58 -103.44 -103.30 -103.15 -102.99 -102.82 -102.64 -102.45 -102.25 -102.04 -101.81 -101.57 -101.32 -101.05 -100.77 -100.47 -100.15 -99.82 -99.48 -99.11 -98.74 -98.34 -97.94 -97.52 -97.08 -96.64 -96.18 -95.71 -95.24 -94.76 -94.27 -93.78 -93.29 -92.81 -92.33 -91.85 -91.38 -90.93 -90.48 -90.06 -89.65 -89.26 -88.90 -88.56 -88.25 -87.96 -87.71 -87.49 -87.30 -87.15 -87.03 -86.94 -86.89 -86.87 -86.89 -86.94 -87.02 -87.13 -87.27 -87.44 -87.64 -87.86 -88.10 -88.36 -88.64 -88.94 -89.24 -89.56 -89.89 -90.22 -90.55 -90.88 -91.22 -91.54 -91.87 -92.19 -92.50 -92.79 -93.08 -93.35 -93.61 -93.85 -94.07 -94.28 -94.46 -94.62 -94.76 -94.88 -94.97 -95.04 -95.08 -95.10 -95.10 -95.07 -95.02 -94.95 -94.87 -94.77 -94.65 -94.53 -94.40 -94.28 -94.15 -94.04 -93.94 -93.85 -93.78 -93.74 -93.72 -93.72 -93.75 -93.80 -93.88 -93.97 -94.09 -94.22 -94.36 -94.51 -94.67 -94.83 -94.98 -95.13 -95.28 -95.41 -95.53 -95.64 -95.73 -95.81 -95.87 -95.92 -95.96 -95.98 -95.99 -95.99 -95.98 -95.96 -95.93 -95.89 -95.85 -95.80 -95.75 -95.69 -95.63 -95.57 -95.50 -95.43 -95.36 -95.29 -95.21 -95.13 -95.06 -94.98 -94.90 -94.82 -94.74 -94.65 -94.57 -94.49 -94.41 -94.32 -94.24 -94.16 -94.08 -93.99 -93.91 -93.83 -93.75 -93.67 -93.59 -93.51 -93.43 -93.35 -93.28 -93.20 -93.12 -93.05 -92.97 -92.90 -92.83 -92.75 -92.68 -92.61 -92.54 -92.47 -92.40 -92.33 -92.26 -92.20 -92.13 -92.06 -92.00 -91.93 -91.87
-104.31 -104.22 -104.12 -104.01 -103.90 -103.78 -103.66 -103.53 -103.39 -103.25 -103.10 -102.93 -102.76 -102.57 -102.38 -102.17 -101.95 -101.71 -101.46 -101.19 -100.91 -100.62 -100.30 -99.97 -99.63 -99.27 -98.89 -98.49 -98.08 -97.65 -97.20 -96.75 -96.28 -95.79 -95.30 -94.80 -94.29 -93.78 -93.26 -92.74 -92.23 -91.72 -91.21 -90.71 -90.23 -89.76 -89.30 -88.87 -88.45 -88.07 -87.70 -87.37 -87.07 -86.80 -86.56 -86.36 -86.19 -86.06 -85.97 -85.91 -85.89 -85.91 -85.96 -86.05 -86.17 -86.33 -86.51 -86.72 -86.96 -87.22 -87.50 -87.81 -88.13 -88.46 -88.80 -89.16 -89.52 -89.88 -90.25 -90.61 -90.97 -91.33 -91.68 -92.02 -92.34 -92.66 -92.96 -93.24 -93.51 -93.76 -93.98 -94.18 -94.36 -94.52 -94.65 -94.75 -94.82 -94.87 -94.89 -94.88 -94.85 -94.79 -94.71 -94.60 -94.48 -94.35 -94.21 -94.06 -93.92 -93.77 -93.64 -93.52 -93.42 -93.34 -93.29 -93.26 -93.26 -93.30 -93.35 -93.44 -93.55 -93.68 -93.83 -93.99 -94.17 -94.35 -94.53 -94.71 -94.88 -95.05 -95.20 -95.34 -95.47 -95.58 -95.67 -95.74 -95.80 -95.85 -95.88 -95.90 -95.90 -95.89 -95.88 -95.85 -95.82 -95.78 -95.73 -95.68 -95.62 -95.56 -95.50 -95.43 -95.36 -95.29 -95.22 -95.15 -95.07 -94.99 -94.92 -94.84 -94.76 -94.68 -94.60 -94.52 -94.43 -94.35 -94.27 -94.19 -94.11 -94.03 -93.95 -93.87 -93.79 -93.71 -93.63 -93.55 -93.47 -93.40 -93.32 -93.24 -93.17 -93.09 -93.02 -92.94 -92.87 -92.80 -92.73 -92.66 -92.59 -92.52 -92.45 -92.38 -92.31 -92.24 -92.17 -92.11 -92.04 -91.97 -91.91 -91.84
-104.28 -104.19 -104.08 -103.98 -103.86 -103.74 -103.62 -103.49 -103.35 -103.20 -103.04 -102.87 -102.69 -102.50 -102.30 -102.08 -101.85 -101.60 -101.34 -101.07 -100.77 -100.47 -100.14 -99.79 -99.43 -99.05 -98.65 -98.24 -97.80 -97.35 -96.89 -96.41 -95.91 -95.40 -94.88 -94.36 -93.82 -93.28 -92.73 -92.18 -91.64 -91.09 -90.56 -90.03 -89.52 -89.02 -88.53 -88.07 -87.63 -87.22 -86.83 -86.48 -86.15 -85.87 -85.61 -85.40 -85.22 -85.08 -84.98 -84.92 -84.90 -84.91 -84.97 -85.06 -85.19 -85.36 -85.55 -85.78 -86.04 -86.32 -86.62 -86.95 -87.29 -87.65 -88.02 -88.41 -88.80 -89.19 -89.59 -89.98 -90.38 -90.77 -91.15 -91.52 -91.87 -92.22 -92.55 -92.86 -93.15 -93.42 -93.67 -93.89 -94.08 -94.25 -94.39 -94.50 -94.58 -94.63 -94.65 -94.64 -94.60 -94.53 -94.43 -94.31 -94.17 -94.02 -93.86 -93.69 -93.52 -93.36 -93.20 -93.07 -92.95 -92.86 -92.80 -92.77 -92.77 -92.80 -92.87 -92.97 -93.09 -93.24 -93.41 -93.60 -93.80 -94.00 -94.21 -94.41 -94.61 -94.80 -94.98 -95.14 -95.28 -95.41 -95.52 -95.61 -95.68 -95.74 -95.78 -95.80 -95.81 -95.81 -95.80 -95.77 -95.74 -95.70 -95.66 -95.61 -95.55 -95.49 -95.43 -95.36 -95.30 -95.23 -95.15 -95.08 -95.01 -94.93 -94.85 -94.78 -94.70 -94.62 -94.54 -94.46 -94.38 -94.30 -94.22 -94.14 -94.06 -93.98 -93.90 -93.83 -93.75 -93.67 -93.59 -93.51 -93.44 -93.36 -93.28 -93.21 -93.13 -93.06 -92.99 -92.91 -92.84 -92.77 -92.70 -92.63 -92.56 -92.49 -92.42 -92.35 -92.28 -92.22 -92.15 -92.08 -92.02 -91.95 -91.89 -91.82
-104.25 -104.15 -104.05 -103.94 -103.83 -103.70 -103.58 -103.44 -103.30 -103.14 -102.98 -102.81 -102.62 -102.42 -102.21 -101.99 -101.75 -101.50 -101.22 -100.94 -100.63 -100.31 -99.97 -99.61 -99.23 -98.83 -98.42 -97.98 -97.53 -97.06 -96.57 -96.06 -95.54 -95.01 -94.46 -93.91 -93.34 -92.77 -92.19 -91.62 -91.04 -90.47 -89.90 -89.34 -88.80 -88.27 -87.76 -87.27 -86.80 -86.36 -85.95 -85.58 -85.23 -84.92 -84.65 -84.42 -84.23 -84.08 -83.97 -83.91 -83.89 -83.90 -83.96 -84.06 -84.20 -84.37 -84.58 -84.82 -85.10 -85.40 -85.72 -86.07 -86.44 -86.83 -87.23 -87.64 -88.06 -88.49 -88.91 -89.34 -89.77 -90.19 -90.60 -91.00 -91.39 -91.76 -92.12 -92.46 -92.77 -93.07 -93.33 -93.58 -93.79 -93.97 -94.12 -94.24 -94.33 -94.38 -94.39 -94.37 -94.32 -94.24 -94.13 -93.99 -93.83 -93.66 -93.47 -93.28 -93.09 -92.90 -92.73 -92.58 -92.45 -92.34 -92.27 -92.24 -92.24 -92.28 -92.35 -92.46 -92.60 -92.77 -92.96 -93.17 -93.40 -93.63 -93.87 -94.10 -94.33 -94.54 -94.74 -94.93 -95.09 -95.24 -95.36 -95.47 -95.55 -95.62 -95.67 -95.70 -95.72 -95.72 -95.71 -95.69 -95.67 -95.63 -95.59 -95.54 -95.48 -95.42 -95.36 -95.30 -95.23 -95.16 -95.09 -95.02 -94.95 -94.87 -94.80 -94.72 -94.64 -94.56 -94.49 -94.41 -94.33 -94.25 -94.17 -94.10 -94.02 -93.94 -93.86 -93.78 -93.71 -93.63 -93.55 -93.48 -93.40 -93.33 -93.25 -93.18 -93.10 -93.03 -92.96 -92.89 -92.81 -92.74 -92.67 -92.60 -92.53 -92.46 -92.40 -92.33 -92.26 -92.19 -92.13 -92.06 -91.99 -91.93 -91.86 -91.80
-104.22 -104.12 -104.01 -103.90 -103.79 -103.66 -103.53 -103.39 -103.24 -103.09 -102.92 -102.74 -102.55 -102.35 -102.13 -101.90 -101.65 -101.39 -101.11 -100.81 -100.49 -100.15 -99.80 -99.43 -99.03 -98.62 -98.18 -97.72 -97.25 -96.76 -96.24 -95.72 -95.17 -94.61 -94.04 -93.45 -92.86 -92.26 -91.65 -91.04 -90.44 -89.83 -89.24 -88.65 -88.08 -87.52 -86.98 -86.46 -85.97 -85.50 -85.07 -84.67 -84.30 -83.98 -83.69 -83.44 -83.24 -83.08 -82.96 -82.89 -82.87 -82.89 -82.95 -83.05 -83.20 -83.38 -83.60 -83.86 -84.15 -84.47 -84.82 -85.19 -85.58 -86.00 -86.42 -86.86 -87.31 -87.77 -88.23 -88.69 -89.14 -89.60 -90.04 -90.47 -90.89 -91.29 -91.68 -92.04 -92.38 -92.70 -92.99 -93.25 -93.48 -93.68 -93.84 -93.96 -94.05 -94.10 -94.11 -94.09 -94.03 -93.93 -93.81 -93.65 -93.48 -93.28 -93.07 -92.85 -92.64 -92.43 -92.23 -92.06 -91.91 -91.80 -91.72 -91.68 -91.68 -91.72 -91.80 -91.93 -92.09 -92.28 -92.49 -92.73 -92.98 -93.24 -93.51 -93.77 -94.03 -94.27 -94.50 -94.70 -94.89 -95.06 -95.20 -95.32 -95.42 -95.50 -95.56 -95.60 -95.63 -95.64 -95.63 -95.62 -95.59 -95.56 -95.52 -95.47 -95.42 -95.36 -95.30 -95.23 -95.17 -95.10 -95.03 -94.96 -94.89 -94.81 -94.74 -94.66 -94.59 -94.51 -94.43 -94.36 -94.28 -94.20 -94.13 -94.05 -93.97 -93.89 -93.82 -93.74 -93.67 -93.59 -93.51 -93.44 -93.36 -93.29 -93.22 -93.14 -93.07 -93.00 -92.93 -92.86 -92.79 -92.72 -92.65 -92.58 -92.51 -92.44 -92.37 -92.30 -92.24 -92.17 -92.10 -92.04 -91.97 -91.91 -91.84 -91.78
-104.19 -104.09 -103.98 -103.87 -103.75 -103.62 -103.49 -103.34 -103.19 -103.03 -102.86 -102.68 -102.48 -102.27 -102.04 -101.80 -101.55 -101.28 -100.99 -100.68 -100.35 -100.00 -99.63 -99.24 -98.83 -98.40 -97.94 -97.47 -96.97 -96.46 -95.92 -95.37 -94.80 -94.21 -93.61 -93.00 -92.38 -91.75 -91.11 -90.47 -89.84 -89.20 -88.58 -87.96 -87.35 -86.77 -86.20 -85.65 -85.13 -84.64 -84.18 -83.76 -83.37 -83.03 -82.72 -82.46 -82.25 -82.08 -81.95 -81.88 -81.85 -81.87 -81.93 -82.04 -82.19 -82.38 -82.62 -82.89 -83.20 -83.54 -83.90 -84.30 -84.72 -85.16 -85.61 -86.08 -86.56 -87.05 -87.54 -88.03 -88.51 -89.00 -89.47 -89.93 -90.38 -90.81 -91.23 -91.62 -91.98 -92.32 -92.63 -92.91 -93.16 -93.37 -93.54 -93.67 -93.77 -93.82 -93.83 -93.79 -93.72 -93.62 -93.47 -93.30 -93.10 -92.88 -92.65 -92.41 -92.17 -91.93 -91.72 -91.52 -91.36 -91.23 -91.14 -91.10 -91.10 -91.15 -91.24 -91.38 -91.56 -91.77 -92.01 -92.27 -92.55 -92.85 -93.14 -93.43 -93.72 -93.99 -94.24 -94.48 -94.69 -94.88 -95.04 -95.18 -95.29 -95.38 -95.45 -95.50 -95.53 -95.55 -95.55 -95.54 -95.52 -95.49 -95.45 -95.40 -95.35 -95.29 -95.24 -95.17 -95.11 -95.04 -94.97 -94.90 -94.83 -94.76 -94.68 -94.61 -94.53 -94.46 -94.38 -94.31 -94.23 -94.16 -94.08 -94.00 -93.93 -93.85 -93.78 -93.70 -93.63 -93.55 -93.48 -93.40 -93.33 -93.26 -93.18 -93.11 -93.04 -92.97 -92.90 -92.83 -92.76 -92.69 -92.62 -92.55 -92.48 -92.41 -92.35 -92.28 -92.21 -92.15 -92.08 -92.01 -91.95 -91.88 -91.82 -91.75
-104.16 -104.05 -103.94 -103.83 -103.71 -103.58 -103.44 -103.30 -103.14 -102.98 -102.80 -102.61 -102.41 -102.19 -101.96 -101.71 -101.45 -101.17 -100.87 -100.54 -100.20 -99.84 -99.46 -99.05 -98.63 -98.18 -97.71 -97.21 -96.69 -96.16 -95.60 -95.02 -94.43 -93.82 -93.19 -92.55 -91.90 -91.24 -90.57 -89.91 -89.24 -88.58 -87.92 -87.27 -86.64 -86.02 -85.42 -84.85 -84.30 -83.79 -83.30 -82.86 -82.45 -82.09 -81.77 -81.49 -81.26 -81.08 -80.95 -80.87 -80.83 -80.85 -80.92 -81.03 -81.19 -81.39 -81.64 -81.92 -82.25 -82.61 -82.99 -83.41 -83.85 -84.32 -84.80 -85.30 -85.81 -86.32 -86.84 -87.36 -87.88 -88.39 -88.90 -89.39 -89.87 -90.33 -90.77 -91.19 -91.58 -91.94 -92.27 -92.57 -92.83 -93.05 -93.24 -93.38 -93.47 -93.52 -93.53 -93.49 -93.41 -93.29 -93.13 -92.94 -92.72 -92.47 -92.21 -91.95 -91.68 -91.43 -91.19 -90.98 -90.80 -90.66 -90.56 -90.51 -90.52 -90.57 -90.67 -90.82 -91.02 -91.25 -91.52 -91.81 -92.12 -92.44 -92.77 -93.09 -93.41 -93.71 -93.99 -94.25 -94.48 -94.69 -94.88 -95.03 -95.16 -95.26 -95.34 -95.40 -95.44 -95.46 -95.47 -95.46 -95.45 -95.42 -95.38 -95.34 -95.29 -95.23 -95.17 -95.11 -95.05 -94.98 -94.91 -94.84 -94.77 -94.70 -94.63 -94.56 -94.48 -94.41 -94.33 -94.26 -94.18 -94.11 -94.03 -93.96 -93.88 -93.81 -93.74 -93.66 -93.59 -93.51 -93.44 -93.37 -93.30 -93.22 -93.15 -93.08 -93.01 -92.94 -92.87 -92.80 -92.73 -92.66 -92.59 -92.52 -92.46 -92.39 -92.32 -92.25 -92.19 -92.12 -92.06 -91.99 -91.93 -91.86 -91.80 -91.73
-104.12 -104.02 -103.91 -103.79 -103.67 -103.54 -103.40 -103.25 -103.09 -102.92 -102.74 -102.54 -102.34 -102.11 -101.88 -101.62 -101.35 -101.06 -100.75 -100.41 -100.06 -99.69 -99.29 -98.87 -98.43 -97.96 -97.47 -96.96 -96.42 -95.86 -95.28 -94.68 -94.06 -93.42 -92.77 -92.10 -91.43 -90.74 -90.04 -89.35 -88.65 -87.96 -87.27 -86.59 -85.93 -85.28 -84.66 -84.06 -83.48 -82.94 -82.44 -81.97 -81.54 -81.16 -80.82 -80.53 -80.29 -80.10 -79.96 -79.87 -79.83 -79.85 -79.92 -80.03 -80.20 -80.41 -80.67 -80.97 -81.31 -81.68 -82.09 -82.53 -83.00 -83.49 -84.00 -84.52 -85.06 -85.60 -86.15 -86.70 -87.25 -87.79 -88.33 -88.85 -89.36 -89.85 -90.31 -90.76 -91.17 -91.56 -91.91 -92.22 -92.50 -92.74 -92.93 -93.07 -93.17 -93.22 -93.23 -93.18 -93.09 -92.96 -92.78 -92.57 -92.33 -92.06 -91.78 -91.49 -91.20 -90.93 -90.67 -90.44 -90.24 -90.09 -89.98 -89.93 -89.94 -89.99 -90.11 -90.27 -90.49 -90.74 -91.03 -91.35 -91.69 -92.04 -92.40 -92.75 -93.10 -93.43 -93.74 -94.02 -94.28 -94.51 -94.71 -94.88 -95.03 -95.15 -95.24 -95.31 -95.35 -95.38 -95.39 -95.39 -95.37 -95.35 -95.31 -95.27 -95.22 -95.17 -95.11 -95.05 -94.99 -94.92 -94.86 -94.79 -94.72 -94.65 -94.58 -94.50 -94.43 -94.36 -94.28 -94.21 -94.14 -94.06 -93.99 -93.92 -93.84 -93.77 -93.70 -93.62 -93.55 -93.48 -93.40 -93.33 -93.26 -93.19 -93.12 -93.05 -92.98 -92.91 -92.84 -92.77 -92.70 -92.63 -92.56 -92.50 -92.43 -92.36 -92.30 -92.23 -92.16 -92.10 -92.03 -91.97 -91.90 -91.84 -91.77 -91.71
-104.09 -103.98 -103.87 -103.75 -103.63 -103.49 -103.35 -103.20 -103.04 -102.86 -102.68 -102.48 -102.27 -102.04 -101.79 -101.53 -101.25 -100.95 -100.63 -100.29 -99.92 -99.53 -99.12 -98.69 -98.23 -97.75 -97.24 -96.71 -96.15 -95.57 -94.97 -94.35 -93.70 -93.04 -92.36 -91.67 -90.96 -90.25 -89.52 -88.80 -88.07 -87.35 -86.63 -85.93 -85.23 -84.56 -83.91 -83.28 -82.68 -82.12 -81.59 -81.10 -80.65 -80.25 -79.89 -79.58 -79.33 -79.13 -78.98 -78.89 -78.85 -78.86 -78.93 -79.06 -79.23 -79.45 -79.72 -80.03 -80.38 -80.78 -81.21 -81.67 -82.15 -82.67 -83.20 -83.75 -84.32 -84.89 -85.47 -86.05 -86.63 -87.20 -87.76 -88.31 -88.85 -89.37 -89.86 -90.33 -90.77 -91.17 -91.54 -91.88 -92.17 -92.42 -92.62 -92.77 -92.88 -92.93 -92.93 -92.88 -92.78 -92.63 -92.44 -92.21 -91.95 -91.66 -91.36 -91.04 -90.73 -90.43 -90.15 -89.91 -89.70 -89.53 -89.42 -89.37 -89.37 -89.43 -89.56 -89.74 -89.97 -90.24 -90.56 -90.91 -91.27 -91.65 -92.04 -92.42 -92.80 -93.15 -93.49 -93.80 -94.08 -94.33 -94.55 -94.74 -94.90 -95.03 -95.13 -95.21 -95.27 -95.30 -95.32 -95.32 -95.31 -95.28 -95.25 -95.21 -95.16 -95.11 -95.06 -95.00 -94.93 -94.87 -94.80 -94.74 -94.67 -94.60 -94.53 -94.45 -94.38 -94.31 -94.24 -94.17 -94.09 -94.02 -93.95 -93.87 -93.80 -93.73 -93.66 -93.59 -93.51 -93.44 -93.37 -93.30 -93.23 -93.16 -93.09 -93.02 -92.95 -92.88 -92.81 -92.74 -92.67 -92.60 -92.54 -92.47 -92.40 -92.34 -92.27 -92.20 -92.14 -92.07 -92.01 -91.94 -91.88 -91.81 -91.75 -91.69
-104.06 -103.95 -103.84 -103.72 -103.59 -103.45 -103.31 -103.15 -102.99 -102.81 -102.62 -102.42 -102.20 -101.96 -101.71 -101.44 -101.15 -100.84 -100.51 -100.16 -99.78 -99.39 -98.96 -98.51 -98.04 -97.54 -97.01 -96.46 -95.89 -95.29 -94.67 -94.02 -93.35 -92.67 -91.96 -91.24 -90.51 -89.77 -89.02 -88.27 -87.51 -86.76 -86.01 -85.28 -84.56 -83.86 -83.18 -82.52 -81.90 -81.31 -80.76 -80.25 -79.78 -79.36 -78.99 -78.67 -78.40 -78.19 -78.03 -77.93 -77.89 -77.91 -77.98 -78.10 -78.28 -78.51 -78.79 -79.11 -79.48 -79.89 -80.34 -80.82 -81.33 -81.87 -82.42 -83.00 -83.59 -84.19 -84.80 -85.41 -86.01 -86.62 -87.21 -87.79 -88.35 -88.89 -89.41 -89.90 -90.36 -90.79 -91.18 -91.53 -91.84 -92.10 -92.31 -92.47 -92.58 -92.63 -92.63 -92.58 -92.47 -92.31 -92.10 -91.86 -91.58 -91.27 -90.95 -90.61 -90.28 -89.96 -89.67 -89.40 -89.18 -89.00 -88.88 -88.83 -88.83 -88.90 -89.03 -89.23 -89.48 -89.77 -90.11 -90.48 -90.88 -91.28 -91.70 -92.11 -92.51 -92.89 -93.26 -93.59 -93.89 -94.16 -94.40 -94.61 -94.78 -94.92 -95.03 -95.12 -95.18 -95.22 -95.24 -95.25 -95.24 -95.22 -95.19 -95.15 -95.11 -95.06 -95.00 -94.94 -94.88 -94.82 -94.75 -94.68 -94.62 -94.55 -94.48 -94.41 -94.34 -94.26 -94.19 -94.12 -94.05 -93.98 -93.91 -93.83 -93.76 -93.69 -93.62 -93.55 -93.48 -93.41 -93.34 -93.27 -93.20 -93.13 -93.06 -92.99 -92.92 -92.85 -92.78 -92.71 -92.65 -92.58 -92.51 -92.44 -92.38 -92.31 -92.25 -92.18 -92.11 -92.05 -91.98 -91.92 -91.85 -91.79 -91.73 -91.66
