ncols         240
nrows         44
xllcorner     131.5
yllcorner     39.8875
cellsize      0.004166666667
NODATA_value  -32767.0
-3098.49 -3220.88 -3306.76 -3087.08 -2992.47 -2973.29 -2960.46 -2954.38 -2950.98 -2953.18 -2956.44 -2961.12 -2967.50 -2977.18 -2986.95 -2996.01 -3003.19 -3007.04 -3011.19 -3016.19 -3023.49 -3027.10 -3031.41 -3036.07 -3040.69 -3046.60 -3054.45 -3065.08 -3070.21 -3075.60 -3083.56 -3091.88 -3097.14 -3100.06 -3103.85 -3107.87 -3111.44 -3116.50 -3123.39 -3126.53 -3132.02 -3133.98 -3139.56 -3144.31 -3149.30 -3151.12 -3151.92 -3154.96 -3158.15 -3159.24 -3160.51 -3163.87 -3166.97 -3169.81 -3172.36 -3176.76 -3177.44 -3176.34 -3176.47 -3175.96 -3176.60 -3175.36 -3172.45 -3168.60 -3166.17 -3166.45 -3162.80 -3158.37 -3153.22 -3146.78 -3139.29 -3134.87 -3129.64 -3126.53 -3119.54 -3115.73 -3113.36 -3111.13 -3111.22 -3108.74 -3106.43 -3104.90 -3106.00 -3105.19 -3103.43 -3103.52 -3100.49 -3096.78 -3097.06 -3097.94 -3097.01 -3095.90 -3096.36 -3099.06 -3098.08 -3097.38 -3093.98 -3090.58 -3086.42 -3081.25 -3075.24 -3068.34 -3061.29 -3049.63 -3037.13 -3030.57 -3020.51 -3003.27 -2983.83 -2963.60 -2945.77 -2927.97 -2909.33 -2898.16 -2882.44 -2866.72 -2852.74 -2840.37 -2828.28 -2816.04 -2803.74 -2794.96 -2784.95 -2776.44 -2764.55 -2750.47 -2740.79 -2733.93 -2727.02 -2722.45 -2717.67 -2713.68 -2707.50 -2705.06 -2703.62 -2704.69 -2705.71 -2706.39 -2709.40 -2717.23 -2729.53 -2740.73 -2750.39 -2764.89 -2778.34 -2788.42 -2799.33 -2814.39 -2828.23 -2838.65 -2853.00 -2870.56 -2885.37 -2897.79 -2910.79 -2929.50 -2949.60 -2969.96 -2987.49 -3002.32 -3016.16 -3026.66 -3036.67 -3047.84 -3057.99 -3066.45 -3072.73 -3077.81 -3086.03 -3089.87 -3092.54 -3095.55 -3097.19 -3100.84 -3102.69 -3106.50 -3106.85 -3107.54 -3113.21 -3123.06 -3135.87 -3153.04 -3166.90 -3179.20 -3191.40 -3202.01 -3214.03 -3222.91 -3231.26 -3239.12 -3246.97 -3255.63 -3264.00 -3269.62 -3273.36 -3278.52 -3282.02 -3285.51 -3289.27 -3291.65 -3288.71 -3289.49 -3292.58 -3294.50 -3294.92 -3295.26 -3298.61 -3299.80 -3302.64 -3304.80 -3306.53 -3305.88 -3304.54 -3304.71 -3302.71 -3300.68 -3297.27 -3293.23 -3288.77 -3287.77 -3284.70 -3280.48 -3275.49 -3272.75 -3269.09 -3266.08 -3266.39 -3264.25 -3263.09 -3262.43 -3265.81 -3267.54 -3268.68 -3270.55 -3268.68 -3264.25 -3261.55 -3258.01 -3251.19 -3246.43
-3052.07 -3071.89 -3073.51 -3003.40 -3039.19 -2960.47 -2926.46 -2917.20 -2924.76 -2928.97 -2932.63 -2940.73 -2948.80 -2959.18 -2970.46 -2979.37 -2986.83 -2991.26 -2995.67 -3000.97 -3005.84 -3012.20 -3015.32 -3018.21 -3025.65 -3031.46 -3039.05 -3044.82 -3054.36 -3060.62 -3069.01 -3077.97 -3084.31 -3087.56 -3092.50 -3098.30 -3104.28 -3111.48 -3117.81 -3121.87 -3123.43 -3128.32 -3134.45 -3138.20 -3141.32 -3143.88 -3148.57 -3149.74 -3155.49 -3158.46 -3160.72 -3163.79 -3167.53 -3170.18 -3174.54 -3177.13 -3177.27 -3174.63 -3174.39 -3177.13 -3175.33 -3174.45 -3172.75 -3171.02 -3168.03 -3166.26 -3165.58 -3159.07 -3152.32 -3145.30 -3139.29 -3134.08 -3129.05 -3124.78 -3120.09 -3116.28 -3115.31 -3113.36 -3109.76 -3109.54 -3106.42 -3105.27 -3103.17 -3102.47 -3100.80 -3096.61 -3095.09 -3094.21 -3094.56 -3095.60 -3093.29 -3093.28 -3095.60 -3096.02 -3095.30 -3091.08 -3087.95 -3085.39 -3078.53 -3074.15 -3069.74 -3064.12 -3054.18 -3043.91 -3033.99 -3027.54 -3016.24 -2998.67 -2979.86 -2959.33 -2940.24 -2921.57 -2904.03 -2890.52 -2876.99 -2858.42 -2844.72 -2833.68 -2820.66 -2807.17 -2795.05 -2789.64 -2780.09 -2769.13 -2759.09 -2747.92 -2737.54 -2732.00 -2726.05 -2721.91 -2717.38 -2713.31 -2709.97 -2706.44 -2708.92 -2709.70 -2710.14 -2711.91 -2718.00 -2727.34 -2737.59 -2751.09 -2763.14 -2776.23 -2790.03 -2802.50 -2813.53 -2828.78 -2841.20 -2854.49 -2869.98 -2886.43 -2901.76 -2908.14 -2922.31 -2939.63 -2957.41 -2974.17 -2990.73 -3005.22 -3016.80 -3025.20 -3037.51 -3048.50 -3057.82 -3066.16 -3071.84 -3078.05 -3084.01 -3087.74 -3088.06 -3090.43 -3095.29 -3096.50 -3100.21 -3105.75 -3108.66 -3108.84 -3114.33 -3127.63 -3142.28 -3156.10 -3169.63 -3183.19 -3194.61 -3204.83 -3213.48 -3223.03 -3230.83 -3239.80 -3247.74 -3255.51 -3263.77 -3267.73 -3270.95 -3273.23 -3277.81 -3281.77 -3281.70 -3281.66 -3281.90 -3282.47 -3284.08 -3287.44 -3288.25 -3290.86 -3291.40 -3295.00 -3297.17 -3300.75 -3301.93 -3299.64 -3298.49 -3300.04 -3300.31 -3296.11 -3291.33 -3290.21 -3286.68 -3282.27 -3281.38 -3278.32 -3274.18 -3269.64 -3263.91 -3261.96 -3259.33 -3255.95 -3253.70 -3253.45 -3257.20 -3259.23 -3259.72 -3259.69 -3260.19 -3258.16 -3254.54 -3251.09 -3246.57 -3239.21
-3030.15 -3009.13 -2986.05 -2974.47 -3170.39 -2991.05 -2911.26 -2978.64 -2947.50 -2910.54 -2908.63 -2922.98 -2937.23 -2945.85 -2955.84 -2966.29 -2972.63 -2974.79 -2980.04 -2987.68 -2993.57 -2997.30 -3001.76 -3006.18 -3012.96 -3019.91 -3024.82 -3031.96 -3038.72 -3047.43 -3054.81 -3062.15 -3071.61 -3075.86 -3080.31 -3088.26 -3098.80 -3105.95 -3112.03 -3116.56 -3120.90 -3122.99 -3128.93 -3131.77 -3134.37 -3139.16 -3142.69 -3146.67 -3151.48 -3156.44 -3160.94 -3162.62 -3168.27 -3173.12 -3176.50 -3175.89 -3176.14 -3175.83 -3175.82 -3175.56 -3176.25 -3172.95 -3172.68 -3170.42 -3167.90 -3167.90 -3165.83 -3160.05 -3150.91 -3144.42 -3140.85 -3133.77 -3127.47 -3124.01 -3120.08 -3116.06 -3115.14 -3113.30 -3111.90 -3109.00 -3107.25 -3104.09 -3102.99 -3101.34 -3098.50 -3093.66 -3091.25 -3090.77 -3091.48 -3091.94 -3092.04 -3091.38 -3092.57 -3092.31 -3093.14 -3090.37 -3085.06 -3080.11 -3076.34 -3070.66 -3066.41 -3058.02 -3049.12 -3037.99 -3029.60 -3022.59 -3009.25 -2993.65 -2976.04 -2955.22 -2935.85 -2919.40 -2900.69 -2886.62 -2869.71 -2855.05 -2842.19 -2827.71 -2814.89 -2800.43 -2790.23 -2782.59 -2774.75 -2764.53 -2755.93 -2747.23 -2737.52 -2731.22 -2728.56 -2724.47 -2718.19 -2713.26 -2711.74 -2712.00 -2711.72 -2714.45 -2717.48 -2719.61 -2727.64 -2736.62 -2749.65 -2761.33 -2775.04 -2787.17 -2801.20 -2814.16 -2827.14 -2838.79 -2853.51 -2868.66 -2885.62 -2899.92 -2912.96 -2923.08 -2934.21 -2948.90 -2965.37 -2979.85 -2994.48 -3005.23 -3016.34 -3024.59 -3036.81 -3048.50 -3056.42 -3063.65 -3073.87 -3080.04 -3084.46 -3086.79 -3088.17 -3089.68 -3090.68 -3095.39 -3098.61 -3103.54 -3107.24 -3109.00 -3115.77 -3131.00 -3149.01 -3161.89 -3175.26 -3188.95 -3201.02 -3207.05 -3216.26 -3225.71 -3232.42 -3238.72 -3248.40 -3256.90 -3262.43 -3265.86 -3268.31 -3271.13 -3274.56 -3276.09 -3274.96 -3273.17 -3274.43 -3274.65 -3275.98 -3278.35 -3281.68 -3281.69 -3284.36 -3287.86 -3292.51 -3293.62 -3292.68 -3293.50 -3292.27 -3294.64 -3295.95 -3291.07 -3284.84 -3283.46 -3280.98 -3272.88 -3273.82 -3275.30 -3269.00 -3264.39 -3258.48 -3257.89 -3256.45 -3250.70 -3249.55 -3248.01 -3247.85 -3250.43 -3250.91 -3252.08 -3249.95 -3249.30 -3245.67 -3243.49 -3239.59 -3233.03
-3017.88 -3000.60 -2981.93 -2960.86 -3003.14 -2932.42 -2934.63 -3126.64 -3013.84 -2901.74 -2971.83 -2935.89 -2925.83 -2937.77 -2945.89 -2954.83 -2960.80 -2961.86 -2967.75 -2974.75 -2981.01 -2983.10 -2988.94 -2996.10 -3003.75 -3007.55 -3014.82 -3019.95 -3026.45 -3033.10 -3042.17 -3050.54 -3056.91 -3061.93 -3068.08 -3078.18 -3090.68 -3099.08 -3105.55 -3111.17 -3118.45 -3120.53 -3124.27 -3128.50 -3131.89 -3132.44 -3137.95 -3142.70 -3149.11 -3152.84 -3156.85 -3162.92 -3167.75 -3173.73 -3176.75 -3176.60 -3176.89 -3177.38 -3176.27 -3174.82 -3175.15 -3174.47 -3170.67 -3167.65 -3169.31 -3166.57 -3163.78 -3156.47 -3151.96 -3144.51 -3139.23 -3134.35 -3126.65 -3123.77 -3121.05 -3117.39 -3115.81 -3115.27 -3112.75 -3108.70 -3105.37 -3106.99 -3105.28 -3099.53 -3097.54 -3093.52 -3092.08 -3089.60 -3091.69 -3090.41 -3089.73 -3085.88 -3088.73 -3091.12 -3091.33 -3088.26 -3081.22 -3078.09 -3075.24 -3070.59 -3061.98 -3054.39 -3046.10 -3033.42 -3023.47 -3015.44 -3004.91 -2986.87 -2969.39 -2950.52 -2933.64 -2916.39 -2899.33 -2885.00 -2870.04 -2855.29 -2841.48 -2824.66 -2810.29 -2798.88 -2785.84 -2778.64 -2771.18 -2763.61 -2755.04 -2745.03 -2740.49 -2736.09 -2732.33 -2727.98 -2722.85 -2718.47 -2718.87 -2717.57 -2717.90 -2720.19 -2725.73 -2728.81 -2735.74 -2749.30 -2761.91 -2773.66 -2784.95 -2799.80 -2815.61 -2825.59 -2837.95 -2851.27 -2865.46 -2880.90 -2898.34 -2911.69 -2926.57 -2934.92 -2946.45 -2958.91 -2974.14 -2988.74 -2997.27 -3006.53 -3016.59 -3025.81 -3035.53 -3045.65 -3055.61 -3063.84 -3072.94 -3079.34 -3084.44 -3086.69 -3089.44 -3089.89 -3093.04 -3096.74 -3102.64 -3104.21 -3108.93 -3114.54 -3116.57 -3136.01 -3152.90 -3168.49 -3182.34 -3193.92 -3206.18 -3213.85 -3221.65 -3228.73 -3234.32 -3240.69 -3249.43 -3255.66 -3260.54 -3260.50 -3265.28 -3267.02 -3268.03 -3269.22 -3268.99 -3266.96 -3264.72 -3266.09 -3268.76 -3269.16 -3270.67 -3271.86 -3274.44 -3278.94 -3282.45 -3283.53 -3282.86 -3282.36 -3283.89 -3282.66 -3292.12 -3284.73 -3275.55 -3273.05 -3269.34 -3269.05 -3268.34 -3264.40 -3261.00 -3265.40 -3255.99 -3253.05 -3249.72 -3246.88 -3244.36 -3243.81 -3244.00 -3242.68 -3244.85 -3241.84 -3239.96 -3238.15 -3238.01 -3234.59 -3229.77 -3225.06
-3008.99 -2993.31 -2973.56 -2950.89 -2926.34 -2909.16 -2904.27 -2934.33 -2931.20 -2918.10 -3230.11 -3010.74 -2913.86 -2931.17 -2939.36 -2944.35 -2948.88 -2953.88 -2957.05 -2963.59 -2968.51 -2972.77 -2977.56 -2984.47 -2992.81 -2997.95 -3003.19 -3009.29 -3013.37 -3019.97 -3030.34 -3036.99 -3044.19 -3049.01 -3058.81 -3069.35 -3078.42 -3090.03 -3097.64 -3105.64 -3111.72 -3116.66 -3121.67 -3124.82 -3127.87 -3130.65 -3134.60 -3141.78 -3147.00 -3149.10 -3154.80 -3160.62 -3167.04 -3170.82 -3175.67 -3178.25 -3176.51 -3177.56 -3178.62 -3178.70 -3176.77 -3173.72 -3170.69 -3168.33 -3167.82 -3165.98 -3159.80 -3154.91 -3149.41 -3143.68 -3138.47 -3132.93 -3129.48 -3123.33 -3120.23 -3119.67 -3118.60 -3115.60 -3112.51 -3109.43 -3107.62 -3106.39 -3104.65 -3100.22 -3096.18 -3095.11 -3091.79 -3090.44 -3090.53 -3091.11 -3088.27 -3086.17 -3088.52 -3089.65 -3088.33 -3083.79 -3079.62 -3077.95 -3074.58 -3068.24 -3061.44 -3051.36 -3042.55 -3030.54 -3018.13 -3010.99 -2997.42 -2979.70 -2961.85 -2945.97 -2931.20 -2912.89 -2897.11 -2884.67 -2871.59 -2855.57 -2842.57 -2826.97 -2811.46 -2796.34 -2784.70 -2776.78 -2770.05 -2762.94 -2752.71 -2747.00 -2742.62 -2742.19 -2737.31 -2733.91 -2731.00 -2727.54 -2726.35 -2726.42 -2728.61 -2730.30 -2735.15 -2738.83 -2748.31 -2759.24 -2773.74 -2785.72 -2798.72 -2814.83 -2829.34 -2840.23 -2850.29 -2865.58 -2878.93 -2893.30 -2910.39 -2926.06 -2938.28 -2946.22 -2957.82 -2971.02 -2983.65 -2994.51 -3003.63 -3010.21 -3020.91 -3028.08 -3036.36 -3045.16 -3053.82 -3062.65 -3069.12 -3078.43 -3085.52 -3086.92 -3087.65 -3091.90 -3096.29 -3100.20 -3104.22 -3109.51 -3115.36 -3120.64 -3131.64 -3144.08 -3158.90 -3175.34 -3189.56 -3200.05 -3211.61 -3220.93 -3227.08 -3232.33 -3238.36 -3244.88 -3250.18 -3254.41 -3257.80 -3258.98 -3259.28 -3261.19 -3261.68 -3260.34 -3260.07 -3257.26 -3256.35 -3256.77 -3260.36 -3259.77 -3258.49 -3261.21 -3264.72 -3266.65 -3269.51 -3270.68 -3269.22 -3268.77 -3268.15 -3268.30 -3267.95 -3265.77 -3263.63 -3261.99 -3256.33 -3259.07 -3258.75 -3252.51 -3249.73 -3248.61 -3244.64 -3242.82 -3242.93 -3240.48 -3238.39 -3237.96 -3238.76 -3239.08 -3236.38 -3234.66 -3231.58 -3229.33 -3227.85 -3223.46 -3219.70 -3215.45
-3003.71 -2987.44 -2967.67 -2947.44 -2927.29 -2910.69 -2895.66 -2938.08 -3173.22 -2995.71 -2933.36 -2920.35 -2916.01 -2925.78 -2931.58 -2937.51 -2942.39 -2945.79 -2951.18 -2954.60 -2961.01 -2965.85 -2969.18 -2975.94 -2984.87 -2990.21 -2992.50 -2997.64 -3004.68 -3012.29 -3018.52 -3027.48 -3033.23 -3040.96 -3049.13 -3061.01 -3071.62 -3081.38 -3091.24 -3097.66 -3105.66 -3112.04 -3117.81 -3121.55 -3124.35 -3129.66 -3135.77 -3140.96 -3146.13 -3149.80 -3152.91 -3159.39 -3163.86 -3170.12 -3172.83 -3176.08 -3175.83 -3177.18 -3180.80 -3181.04 -3177.66 -3175.73 -3173.56 -3171.78 -3167.13 -3163.23 -3159.05 -3151.99 -3145.20 -3141.23 -3137.20 -3132.66 -3126.88 -3124.74 -3121.96 -3122.25 -3121.80 -3116.63 -3113.08 -3111.84 -3108.87 -3105.85 -3103.59 -3101.47 -3096.46 -3093.07 -3092.49 -3088.04 -3089.79 -3089.93 -3086.69 -3086.99 -3083.29 -3087.44 -3084.58 -3080.18 -3077.83 -3075.79 -3071.89 -3066.79 -3060.13 -3049.92 -3038.99 -3027.72 -3017.31 -3006.88 -2992.75 -2975.08 -2958.55 -2942.58 -2926.24 -2911.76 -2894.06 -2885.80 -2871.92 -2857.17 -2843.85 -2830.07 -2812.93 -2798.45 -2787.71 -2781.50 -2771.50 -2761.76 -2756.77 -2749.97 -2747.02 -2744.99 -2743.95 -2740.92 -2737.62 -2737.67 -2736.41 -2737.30 -2738.82 -2741.91 -2744.62 -2751.33 -2760.79 -2772.10 -2782.93 -2797.50 -2810.99 -2825.84 -2841.52 -2852.87 -2864.54 -2876.38 -2891.09 -2906.51 -2921.83 -2937.89 -2948.34 -2956.30 -2967.45 -2980.35 -2990.08 -2998.94 -3008.30 -3016.98 -3022.98 -3030.06 -3038.74 -3046.64 -3053.39 -3061.40 -3070.74 -3077.08 -3082.79 -3085.01 -3086.57 -3093.44 -3099.00 -3103.35 -3108.23 -3115.88 -3123.17 -3129.15 -3139.34 -3155.61 -3143.48 -3170.95 -3195.25 -3206.84 -3217.83 -3223.69 -3230.04 -3234.86 -3240.83 -3247.67 -3252.37 -3254.79 -3257.42 -3256.22 -3255.43 -3255.41 -3255.32 -3253.31 -3248.52 -3248.03 -3247.07 -3248.43 -3249.17 -3249.81 -3250.60 -3250.57 -3253.53 -3256.65 -3258.69 -3259.43 -3258.21 -3256.93 -3256.71 -3255.90 -3254.42 -3252.59 -3253.23 -3256.26 -3253.87 -3251.64 -3247.88 -3243.63 -3238.83 -3236.78 -3235.27 -3233.47 -3232.57 -3231.55 -3231.68 -3232.53 -3235.31 -3233.69 -3230.58 -3227.53 -3227.11 -3222.91 -3218.18 -3215.48 -3210.81 -3207.79
-2993.25 -2982.94 -2965.18 -2944.64 -2926.93 -2912.00 -2903.57 -2909.37 -2961.72 -2920.19 -2899.30 -2908.24 -2916.13 -2919.76 -2928.97 -2971.57 -2986.77 -2954.82 -2948.79 -2986.60 -2974.70 -2960.30 -2967.00 -2973.50 -2980.74 -2983.62 -2986.71 -2991.16 -2998.12 -3005.37 -3011.28 -3019.78 -3028.85 -3034.54 -3043.62 -3056.51 -3068.43 -3077.51 -3084.09 -3094.48 -3103.17 -3107.79 -3113.95 -3117.78 -3123.63 -3129.93 -3137.07 -3142.19 -3146.63 -3149.98 -3153.23 -3156.96 -3164.32 -3169.00 -3170.01 -3171.69 -3173.59 -3178.76 -3179.61 -3181.58 -3179.60 -3177.77 -3175.92 -3173.23 -3169.06 -3164.75 -3158.66 -3150.01 -3143.09 -3139.12 -3135.84 -3129.33 -3124.91 -3124.73 -3124.64 -3123.12 -3121.59 -3120.96 -3115.95 -3112.90 -3110.20 -3108.24 -3104.82 -3100.65 -3096.90 -3093.79 -3093.37 -3092.68 -3089.90 -3088.08 -3087.93 -3086.30 -3084.28 -3083.64 -3083.41 -3078.96 -3073.48 -3073.63 -3070.60 -3064.94 -3056.19 -3047.09 -3037.52 -3027.51 -3014.60 -3004.41 -2987.89 -2973.17 -2956.90 -2939.26 -2924.61 -2909.72 -2894.45 -2882.88 -2872.11 -2859.90 -2845.15 -2831.16 -2815.81 -2802.20 -2791.96 -2784.99 -2775.99 -2767.54 -2759.89 -2755.63 -2750.62 -2749.30 -2748.67 -2745.18 -2742.74 -2742.70 -2745.68 -2745.79 -2746.55 -2751.93 -2756.61 -2762.21 -2770.00 -2780.92 -2792.68 -2805.79 -2818.95 -2833.50 -2848.02 -2860.83 -2870.81 -2885.13 -2900.33 -2917.12 -2932.22 -2943.79 -2956.66 -2964.73 -2974.48 -2984.98 -2995.44 -3002.96 -3010.55 -3017.99 -3025.70 -3032.74 -3041.00 -3048.58 -3052.75 -3062.41 -3070.79 -3078.03 -3080.77 -3083.83 -3087.65 -3092.68 -3099.55 -3106.62 -3113.74 -3120.45 -3130.25 -3137.36 -3148.03 -3162.05 -3169.04 -3184.05 -3199.50 -3211.07 -3218.01 -3223.77 -3230.13 -3237.77 -3241.91 -3247.68 -3254.03 -3255.94 -3255.45 -3254.77 -3255.24 -3253.32 -3250.41 -3245.69 -3241.89 -3239.99 -3240.75 -3241.21 -3240.90 -3240.27 -3242.70 -3245.00 -3246.08 -3251.73 -3252.97 -3252.05 -3250.76 -3251.72 -3250.77 -3248.77 -3247.56 -3246.46 -3247.09 -3248.64 -3249.20 -3244.74 -3241.75 -3236.67 -3231.76 -3229.20 -3228.61 -3228.36 -3224.43 -3225.43 -3227.07 -3229.10 -3229.21 -3229.33 -3226.93 -3224.67 -3221.85 -3218.61 -3215.15 -3210.25 -3207.07 -3201.38
-2969.89 -2977.97 -2959.60 -2941.20 -2925.49 -2918.06 -2910.72 -2905.18 -2898.33 -2903.45 -2907.45 -2909.56 -2914.81 -2916.41 -2940.10 -3170.21 -3245.68 -3029.69 -2957.68 -3164.08 -3071.30 -2950.40 -2964.10 -2972.51 -2974.84 -2977.70 -2980.00 -2984.49 -2989.35 -2996.31 -3004.24 -3011.25 -3018.87 -3026.79 -3037.82 -3049.85 -3062.10 -3069.41 -3079.00 -3088.72 -3098.11 -3101.84 -3107.37 -3114.92 -3119.96 -3127.05 -3135.63 -3143.16 -3146.76 -3148.95 -3153.39 -3158.42 -3162.78 -3166.21 -3167.33 -3169.02 -3173.02 -3175.45 -3178.32 -3178.45 -3180.73 -3179.36 -3175.75 -3174.46 -3170.72 -3164.19 -3155.74 -3149.51 -3144.24 -3137.75 -3132.63 -3128.76 -3123.78 -3125.12 -3124.93 -3124.56 -3122.95 -3120.54 -3118.25 -3114.41 -3113.10 -3111.89 -3106.86 -3101.96 -3098.33 -3097.84 -3094.61 -3092.49 -3090.02 -3087.64 -3084.92 -3084.72 -3077.64 -3080.33 -3079.07 -3074.78 -3070.88 -3069.71 -3068.15 -3060.83 -3051.61 -3044.28 -3034.93 -3022.80 -3009.57 -3000.78 -2987.21 -2970.32 -2955.49 -2939.93 -2924.45 -2909.54 -2893.81 -2884.45 -2873.70 -2861.55 -2847.86 -2831.85 -2820.79 -2809.31 -2799.07 -2793.04 -2785.95 -2777.78 -2769.96 -2764.46 -2763.19 -2760.20 -2756.56 -2754.43 -2751.29 -2754.41 -2755.68 -2757.86 -2759.64 -2766.27 -2774.52 -2779.02 -2787.06 -2798.22 -2809.53 -2818.57 -2831.20 -2846.73 -2861.52 -2870.26 -2881.82 -2896.66 -2912.44 -2929.50 -2943.49 -2956.76 -2967.04 -2976.47 -2984.07 -2992.36 -3001.51 -3008.49 -3012.96 -3020.94 -3030.65 -3036.29 -3041.61 -3049.51 -3057.96 -3063.91 -3071.98 -3077.07 -3080.22 -3082.81 -3086.51 -3094.05 -3099.68 -3108.82 -3115.99 -3124.63 -3135.93 -3147.44 -3157.99 -3169.71 -3182.90 -3197.78 -3208.04 -3215.29 -3222.64 -3225.74 -3230.19 -3235.50 -3241.05 -3247.40 -3250.60 -3253.89 -3251.59 -3250.99 -3251.62 -3249.19 -3243.04 -3238.07 -3234.60 -3231.30 -3229.79 -3230.80 -3230.60 -3213.81 -3227.39 -3232.64 -3235.85 -3240.13 -3243.77 -3244.51 -3245.32 -3247.58 -3244.78 -3241.37 -3240.52 -3239.85 -3238.05 -3237.83 -3237.60 -3236.13 -3229.51 -3225.72 -3222.91 -3220.95 -3219.79 -3218.19 -3217.96 -3217.58 -3220.29 -3222.53 -3221.40 -3221.27 -3219.81 -3218.10 -3215.43 -3213.97 -3210.72 -3205.05 -3200.25 -3198.94
-2966.81 -2971.09 -2952.63 -2936.87 -2928.04 -2919.39 -2916.42 -2912.60 -2910.98 -2911.91 -2911.89 -2914.62 -2916.38 -2917.08 -2939.04 -3170.06 -3247.72 -3028.53 -2951.23 -3163.74 -3069.46 -2945.43 -2958.89 -2964.64 -2970.82 -2970.53 -2974.48 -2977.29 -2982.07 -2988.70 -2995.29 -3002.43 -3009.30 -3018.58 -3030.82 -3040.71 -3051.27 -3062.78 -3072.75 -3082.01 -3091.35 -3096.60 -3103.71 -3108.20 -3117.63 -3124.40 -3133.94 -3140.57 -3144.77 -3146.13 -3152.14 -3157.98 -3160.90 -3163.26 -3165.96 -3168.36 -3170.00 -3173.67 -3177.07 -3177.98 -3176.29 -3175.85 -3176.45 -3173.11 -3169.30 -3162.62 -3156.03 -3149.42 -3144.55 -3137.13 -3132.16 -3128.34 -3126.08 -3123.21 -3123.67 -3124.79 -3122.58 -3119.78 -3117.39 -3117.95 -3115.36 -3113.92 -3110.32 -3105.66 -3103.47 -3101.14 -3097.74 -3093.53 -3089.65 -3086.69 -3082.48 -3079.97 -3075.58 -3075.46 -3072.34 -3070.38 -3068.93 -3068.74 -3064.29 -3058.05 -3049.85 -3040.12 -3031.84 -3019.02 -3007.26 -2996.92 -2984.02 -2968.37 -2954.80 -2941.17 -2926.43 -2909.90 -2897.56 -2889.48 -2877.81 -2864.33 -2851.55 -2838.25 -2825.25 -2816.82 -2809.26 -2803.19 -2797.35 -2790.18 -2783.71 -2779.95 -2777.20 -2773.93 -2768.60 -2766.74 -2767.39 -2766.96 -2768.36 -2771.74 -2775.76 -2782.18 -2791.00 -2799.41 -2807.54 -2817.60 -2827.47 -2837.59 -2850.19 -2864.08 -2876.38 -2883.31 -2894.81 -2911.74 -2926.71 -2940.72 -2957.89 -2969.34 -2979.59 -2985.41 -2995.44 -3003.97 -3008.60 -3014.04 -3019.56 -3026.12 -3033.83 -3039.18 -3044.59 -3051.55 -3058.83 -3065.50 -3070.80 -3077.12 -3081.15 -3080.96 -3086.05 -3093.69 -3102.81 -3108.18 -3117.41 -3128.69 -3141.56 -3151.81 -3163.30 -3175.72 -3188.94 -3204.39 -3219.56 -3222.56 -3223.42 -3226.97 -3228.10 -3231.86 -3238.34 -3242.23 -3244.41 -3243.86 -3245.57 -3244.33 -3243.12 -3240.36 -3235.44 -3229.76 -3225.30 -3223.33 -3221.26 -3221.32 -3219.46 -3209.10 -3214.71 -3220.98 -3222.78 -3225.72 -3231.86 -3236.64 -3239.80 -3241.43 -3240.55 -3236.94 -3232.88 -3230.35 -3229.53 -3228.78 -3226.67 -3221.95 -3217.14 -3213.03 -3211.86 -3211.43 -3208.62 -3209.43 -3210.04 -3211.11 -3211.76 -3213.53 -3214.73 -3212.65 -3210.72 -3210.52 -3209.20 -3207.06 -3204.08 -3200.15 -3197.00 -3194.47
-2978.64 -2967.25 -2952.03 -2939.54 -2931.27 -2924.99 -2920.72 -2919.45 -2917.70 -2916.28 -2918.52 -2919.36 -2920.55 -2918.01 -2923.06 -2979.00 -3000.00 -2949.07 -2935.42 -2984.44 -2969.70 -2946.84 -2953.64 -2959.91 -2964.62 -2965.97 -2966.52 -2971.49 -2979.18 -2983.11 -2988.84 -2995.38 -3004.55 -3011.47 -3022.33 -3033.98 -3044.21 -3054.65 -3065.47 -3074.71 -3084.96 -3092.48 -3098.09 -3104.63 -3113.30 -3124.56 -3131.07 -3135.82 -3141.71 -3144.29 -3149.44 -3153.46 -3158.33 -3159.80 -3162.64 -3165.68 -3168.95 -3171.44 -3175.16 -3174.56 -3174.11 -3174.51 -3174.10 -3170.77 -3164.00 -3160.82 -3155.44 -3148.54 -3143.65 -3139.32 -3134.23 -3128.41 -3126.21 -3126.53 -3125.82 -3124.14 -3121.59 -3117.16 -3117.98 -3117.55 -3117.05 -3115.44 -3113.88 -3111.89 -3107.08 -3105.80 -3103.10 -3097.59 -3090.55 -3085.03 -3081.42 -3076.77 -3073.05 -3069.58 -3066.90 -3064.08 -3065.54 -3064.97 -3062.34 -3055.42 -3048.14 -3038.11 -3027.79 -3017.28 -3003.64 -2993.11 -2981.17 -2968.52 -2955.85 -2940.83 -2927.55 -2914.36 -2902.30 -2894.23 -2884.32 -2870.17 -2859.13 -2845.12 -2835.17 -2825.29 -2821.27 -2816.26 -2808.07 -2803.92 -2800.79 -2796.67 -2792.16 -2788.78 -2786.61 -2782.58 -2782.35 -2783.71 -2785.15 -2788.32 -2792.21 -2799.52 -2809.70 -2817.42 -2828.05 -2834.28 -2845.58 -2857.85 -2868.54 -2880.56 -2891.99 -2900.59 -2910.87 -2923.78 -2939.79 -2953.72 -2966.38 -2978.11 -2988.34 -2994.72 -3004.74 -3010.48 -3015.35 -3019.84 -3027.47 -3032.30 -3037.38 -3042.58 -3048.13 -3052.67 -3058.64 -3065.11 -3071.42 -3074.79 -3078.25 -3082.14 -3086.23 -3095.29 -3102.63 -3109.70 -3118.92 -3130.53 -3143.75 -3150.72 -3163.68 -3175.82 -3187.15 -3201.42 -3233.18 -3229.06 -3219.52 -3220.95 -3225.11 -3227.47 -3231.08 -3234.06 -3233.72 -3234.38 -3234.42 -3234.35 -3232.90 -3230.49 -3227.55 -3220.54 -3217.83 -3216.22 -3216.01 -3212.81 -3208.79 -3207.91 -3209.33 -3209.76 -3212.88 -3212.91 -3219.22 -3226.40 -3230.69 -3241.07 -3235.24 -3231.19 -3227.05 -3223.80 -3224.00 -3221.20 -3215.98 -3210.27 -3206.38 -3202.61 -3201.22 -3199.55 -3200.34 -3198.86 -3200.48 -3203.17 -3204.99 -3207.76 -3206.57 -3205.29 -3202.01 -3203.45 -3202.89 -3199.89 -3196.96 -3195.31 -3192.85 -3190.04
-2978.90 -2968.65 -2955.57 -2944.42 -2936.75 -2932.15 -2928.81 -2925.07 -2922.79 -2922.97 -2922.22 -2924.35 -2922.55 -2920.65 -2920.94 -2922.43 -2924.98 -2925.85 -2931.35 -2933.41 -2937.13 -2943.10 -2949.55 -2953.44 -2956.06 -2957.92 -2960.62 -2966.14 -2971.68 -2977.71 -2981.55 -2991.06 -3000.22 -3006.50 -3016.21 -3026.26 -3037.40 -3044.17 -3056.53 -3068.50 -3078.00 -3083.62 -3091.40 -3100.26 -3110.62 -3119.87 -3128.40 -3133.76 -3137.61 -3142.52 -3145.00 -3150.07 -3153.66 -3156.64 -3158.01 -3160.73 -3166.94 -3169.26 -3170.26 -3171.98 -3171.95 -3171.81 -3171.12 -3167.08 -3162.52 -3155.95 -3151.63 -3146.80 -3143.49 -3141.23 -3135.85 -3131.11 -3129.04 -3129.77 -3128.04 -3123.13 -3121.38 -3119.33 -3117.77 -3117.42 -3117.79 -3117.54 -3116.59 -3114.03 -3114.57 -3111.25 -3107.41 -3101.20 -3092.01 -3086.75 -3082.27 -3076.12 -3066.97 -3061.81 -3059.82 -3054.78 -3057.55 -3062.14 -3059.26 -3052.82 -3043.80 -3035.11 -3026.56 -3013.78 -3002.44 -2990.79 -2979.84 -2969.48 -2957.05 -2942.74 -2931.00 -2919.43 -2908.23 -2899.83 -2892.31 -2880.71 -2866.47 -2855.66 -2847.47 -2840.45 -2833.76 -2829.58 -2825.27 -2819.90 -2818.07 -2813.51 -2810.16 -2806.87 -2805.46 -2802.57 -2800.36 -2803.40 -2805.51 -2807.16 -2811.64 -2821.43 -2830.38 -2837.14 -2844.35 -2855.13 -2865.35 -2876.22 -2888.99 -2899.20 -2910.57 -2918.47 -2928.43 -2941.08 -2955.33 -2967.49 -2976.77 -2985.54 -2996.84 -3004.14 -3010.04 -3017.06 -3022.10 -3027.09 -3032.22 -3039.09 -3043.88 -3046.75 -3051.94 -3055.14 -3060.22 -3065.51 -3071.25 -3072.14 -3075.56 -3080.16 -3087.04 -3093.09 -3102.47 -3110.54 -3119.71 -3130.43 -3142.63 -3152.08 -3159.14 -3170.12 -3181.12 -3191.96 -3205.75 -3209.71 -3211.22 -3212.23 -3218.08 -3220.90 -3222.54 -3222.60 -3223.64 -3221.35 -3221.12 -3221.37 -3220.53 -3218.19 -3212.88 -3210.24 -3208.39 -3209.53 -3209.69 -3206.18 -3198.69 -3201.45 -3203.98 -3203.04 -3204.61 -3208.26 -3211.99 -3213.61 -3220.82 -3225.71 -3225.67 -3222.82 -3221.46 -3219.49 -3216.99 -3214.55 -3207.95 -3201.31 -3197.45 -3193.22 -3189.99 -3189.27 -3189.88 -3190.24 -3190.34 -3193.67 -3198.39 -3197.81 -3198.32 -3196.54 -3197.73 -3196.30 -3196.02 -3193.85 -3190.42 -3189.91 -3187.91 -3184.74
-2975.20 -2966.55 -2958.15 -2948.15 -2943.33 -2940.59 -2934.84 -2930.27 -2928.33 -2928.77 -2927.71 -2926.13 -2924.55 -2923.04 -2922.02 -2924.46 -2927.22 -2929.27 -2930.55 -2933.22 -2935.92 -2939.48 -2945.61 -2947.12 -2947.58 -2949.75 -2954.10 -2959.58 -2965.03 -2971.35 -2979.79 -2986.45 -2996.24 -3003.99 -3011.51 -3021.02 -3029.28 -3039.08 -3048.34 -3060.03 -3070.04 -3074.98 -3083.95 -3096.55 -3105.88 -3115.32 -3124.59 -3131.32 -3135.05 -3137.60 -3143.17 -3145.66 -3148.19 -3150.79 -3153.86 -3157.96 -3161.56 -3164.98 -3165.34 -3167.83 -3169.45 -3169.49 -3166.85 -3164.12 -3158.26 -3152.69 -3148.55 -3146.61 -3144.33 -3139.03 -3136.52 -3132.84 -3131.76 -3131.58 -3129.25 -3126.25 -3122.27 -3120.20 -3118.38 -3118.81 -3119.19 -3119.85 -3117.99 -3117.42 -3117.55 -3116.53 -3110.65 -3104.16 -3098.32 -3091.25 -3085.00 -3076.85 -3055.33 -3056.81 -3056.39 -3054.28 -3050.31 -3056.02 -3055.22 -3047.61 -3040.21 -3033.11 -3023.37 -3011.89 -2999.23 -2993.59 -2982.70 -2970.56 -2960.03 -2947.27 -2934.72 -2922.94 -2914.49 -2907.54 -2899.11 -2887.97 -2876.56 -2867.33 -2861.55 -2855.54 -2849.52 -2846.12 -2841.93 -2839.31 -2834.46 -2832.56 -2829.27 -2825.28 -2823.09 -2821.82 -2821.93 -2823.38 -2826.02 -2827.97 -2832.46 -2841.61 -2850.70 -2855.14 -2863.06 -2872.96 -2882.94 -2893.54 -2905.15 -2918.68 -2926.30 -2935.60 -2946.37 -2959.35 -2970.07 -2979.26 -2988.54 -2996.18 -3005.35 -3010.21 -3015.49 -3020.82 -3027.24 -3031.05 -3037.20 -3044.62 -3049.81 -3052.03 -3053.66 -3059.89 -3063.72 -3066.84 -3068.59 -3071.71 -3075.19 -3078.76 -3084.91 -3092.99 -3100.29 -3108.94 -3118.94 -3128.42 -3142.60 -3149.44 -3156.23 -3162.69 -3174.40 -3185.82 -3192.09 -3198.86 -3202.30 -3204.61 -3208.27 -3211.74 -3213.54 -3213.18 -3211.75 -3210.97 -3209.66 -3210.10 -3209.99 -3203.22 -3197.53 -3199.13 -3202.13 -3200.64 -3201.47 -3201.80 -3199.72 -3198.49 -3199.28 -3199.67 -3199.11 -3200.68 -3203.89 -3207.83 -3212.85 -3216.56 -3215.83 -3214.17 -3214.53 -3213.08 -3211.39 -3205.79 -3202.17 -3194.84 -3188.54 -3185.55 -3184.48 -3182.21 -3179.76 -3180.65 -3182.36 -3185.64 -3188.64 -3189.85 -3188.90 -3190.59 -3191.25 -3190.07 -3190.23 -3189.62 -3187.68 -3183.17 -3183.76 -3181.53
-2971.20 -2963.36 -2956.32 -2953.00 -2948.10 -2945.24 -2941.12 -2936.83 -2934.00 -2933.56 -2931.73 -2929.57 -2927.20 -2926.47 -2925.13 -2925.42 -2930.73 -2931.16 -2930.49 -2933.17 -2936.07 -2939.04 -2939.54 -2941.96 -2943.01 -2943.53 -2946.95 -2953.60 -2958.17 -2966.02 -2973.17 -2982.62 -2991.31 -3000.85 -3008.18 -3013.96 -3023.96 -3033.63 -3043.14 -3052.19 -3061.16 -3068.14 -3076.35 -3087.96 -3099.34 -3109.89 -3117.91 -3124.63 -3129.90 -3133.35 -3138.11 -3142.74 -3141.84 -3144.57 -3149.40 -3152.33 -3155.50 -3157.91 -3161.82 -3161.37 -3161.50 -3163.71 -3162.74 -3159.22 -3154.54 -3150.67 -3147.33 -3146.75 -3143.01 -3139.39 -3135.16 -3136.23 -3133.36 -3131.66 -3130.92 -3127.92 -3124.26 -3122.26 -3123.06 -3123.82 -3122.30 -3122.28 -3122.10 -3122.71 -3123.10 -3120.81 -3114.69 -3108.79 -3102.55 -3098.42 -3089.05 -3083.18 -3071.03 -3063.75 -3058.77 -3056.40 -3055.34 -3053.00 -3048.65 -3042.99 -3034.88 -3027.10 -3018.74 -3009.42 -2998.67 -2993.40 -2985.37 -2975.47 -2965.57 -2955.61 -2941.70 -2931.31 -2922.12 -2916.17 -2906.18 -2896.03 -2888.75 -2881.58 -2875.87 -2872.03 -2868.25 -2865.54 -2862.62 -2859.49 -2857.46 -2853.80 -2849.91 -2846.31 -2843.18 -2845.02 -2844.78 -2846.09 -2847.65 -2852.64 -2857.96 -2864.16 -2872.58 -2877.59 -2882.80 -2890.36 -2900.49 -2912.17 -2922.99 -2933.12 -2943.63 -2951.10 -2963.66 -2975.92 -2984.54 -2993.37 -3000.93 -3008.01 -3012.07 -3016.84 -3022.05 -3025.38 -3027.98 -3034.98 -3041.16 -3047.77 -3053.16 -3055.61 -3059.74 -3063.74 -3067.78 -3069.01 -3070.35 -3074.22 -3075.49 -3078.47 -3083.50 -3093.30 -3099.38 -3105.92 -3116.67 -3129.05 -3137.80 -3143.71 -3149.59 -3157.61 -3167.22 -3175.71 -3183.40 -3186.79 -3193.44 -3195.20 -3197.84 -3201.68 -3203.16 -3201.82 -3199.43 -3200.52 -3201.45 -3200.18 -3196.76 -3186.89 -3188.45 -3193.86 -3194.03 -3196.18 -3196.19 -3194.80 -3195.10 -3194.04 -3195.24 -3196.43 -3196.17 -3195.88 -3199.91 -3204.11 -3206.37 -3207.76 -3209.08 -3208.06 -3205.72 -3205.47 -3202.82 -3199.77 -3193.51 -3188.95 -3184.20 -3180.95 -3179.23 -3175.40 -3173.80 -3173.87 -3176.56 -3177.53 -3178.20 -3180.07 -3181.03 -3180.68 -3183.03 -3185.67 -3184.41 -3183.99 -3181.50 -3181.75 -3179.13 -3177.33
-2967.80 -2961.33 -2958.10 -2955.30 -2952.05 -2947.93 -2944.65 -2943.11 -2939.26 -2938.20 -2937.58 -2934.39 -2929.87 -2927.66 -2928.93 -2929.88 -2930.88 -2931.63 -2931.29 -2933.38 -2936.55 -2937.12 -2937.92 -2936.93 -2939.65 -2938.39 -2941.28 -2948.24 -2954.42 -2959.19 -2966.75 -2978.24 -2987.97 -2995.10 -3002.10 -3011.29 -3019.42 -3029.45 -3038.79 -3047.08 -3056.76 -3062.36 -3070.99 -3080.42 -3094.06 -3102.83 -3109.46 -3117.36 -3125.09 -3129.46 -3133.00 -3135.71 -3139.10 -3141.71 -3144.52 -3149.39 -3151.63 -3153.52 -3154.82 -3155.01 -3155.76 -3157.03 -3157.01 -3152.50 -3149.87 -3149.69 -3147.64 -3145.14 -3143.34 -3140.19 -3137.38 -3134.84 -3134.72 -3133.76 -3130.19 -3128.36 -3125.13 -3125.73 -3126.43 -3127.64 -3126.35 -3125.81 -3128.31 -3128.31 -3126.50 -3124.09 -3120.61 -3113.62 -3107.06 -3102.07 -3097.58 -3087.96 -3079.45 -3071.65 -3064.11 -3061.49 -3056.28 -3050.54 -3044.64 -3039.07 -3030.77 -3021.27 -3013.78 -3005.51 -2996.79 -2991.35 -2987.11 -2980.98 -2971.57 -2959.23 -2950.34 -2940.13 -2931.56 -2924.77 -2914.88 -2905.13 -2897.11 -2893.60 -2887.97 -2885.67 -2883.95 -2881.36 -2878.47 -2879.06 -2877.40 -2873.53 -2868.62 -2866.27 -2865.51 -2863.38 -2865.65 -2866.19 -2867.88 -2871.86 -2877.09 -2884.66 -2890.73 -2896.75 -2900.53 -2907.41 -2917.08 -2928.79 -2936.78 -2946.51 -2957.23 -2967.65 -2976.15 -2987.35 -2998.22 -3004.24 -3011.13 -3016.53 -3022.20 -3024.40 -3026.46 -3029.99 -3031.70 -3038.24 -3045.14 -3050.01 -3053.14 -3057.29 -3061.52 -3066.25 -3069.46 -3072.96 -3073.39 -3074.69 -3078.08 -3081.47 -3086.58 -3092.12 -3097.33 -3104.06 -3113.28 -3124.54 -3132.21 -3137.05 -3144.00 -3152.76 -3159.36 -3168.24 -3175.41 -3181.62 -3183.06 -3187.60 -3191.21 -3192.70 -3192.46 -3190.66 -3189.35 -3189.39 -3191.03 -3191.24 -3189.16 -3182.82 -3186.36 -3189.11 -3189.88 -3192.14 -3189.85 -3188.52 -3188.06 -3191.40 -3191.29 -3191.46 -3192.23 -3195.03 -3198.31 -3201.60 -3204.71 -3205.42 -3204.06 -3202.90 -3199.61 -3198.35 -3196.44 -3191.31 -3185.31 -3181.13 -3179.52 -3177.43 -3173.53 -3173.16 -3170.27 -3170.40 -3171.02 -3172.48 -3172.44 -3172.02 -3172.04 -3173.13 -3175.37 -3179.09 -3179.00 -3177.85 -3178.77 -3179.51 -3177.45 -3172.07
-2966.61 -2964.08 -2959.31 -2955.80 -2953.86 -2950.62 -2947.14 -2943.52 -2942.84 -2940.79 -2940.34 -2936.32 -2933.22 -2931.62 -2932.99 -2932.85 -2932.21 -2931.79 -2933.33 -2933.50 -2933.23 -2935.51 -2934.60 -2934.63 -2934.34 -2936.17 -2940.38 -2944.22 -2949.50 -2954.04 -2962.82 -2973.82 -2983.50 -2989.22 -2996.61 -3006.80 -3012.83 -3022.72 -3036.83 -3045.94 -3053.21 -3058.55 -3067.47 -3079.03 -3087.55 -3096.06 -3103.84 -3110.96 -3119.62 -3123.02 -3127.77 -3132.21 -3136.92 -3139.79 -3143.34 -3147.25 -3151.92 -3150.58 -3150.37 -3152.14 -3152.33 -3151.41 -3148.91 -3148.18 -3145.91 -3146.41 -3146.62 -3145.14 -3142.57 -3140.56 -3138.02 -3135.65 -3135.84 -3133.61 -3130.24 -3125.57 -3127.81 -3127.59 -3127.58 -3128.60 -3129.43 -3130.45 -3130.57 -3133.04 -3131.87 -3128.78 -3123.77 -3117.27 -3111.48 -3107.43 -3101.32 -3092.20 -3082.56 -3075.37 -3070.55 -3062.32 -3055.60 -3046.23 -3044.82 -3035.87 -3027.38 -3019.84 -3009.44 -3000.97 -2993.96 -2991.15 -2988.28 -2982.55 -2974.34 -2964.88 -2956.80 -2949.02 -2939.25 -2930.88 -2923.44 -2913.33 -2906.27 -2901.33 -2899.26 -2895.84 -2892.33 -2893.05 -2892.48 -2891.96 -2890.91 -2887.12 -2884.11 -2882.76 -2880.80 -2880.79 -2879.70 -2881.89 -2883.69 -2885.84 -2892.18 -2899.56 -2905.37 -2906.44 -2912.58 -2920.27 -2930.00 -2939.55 -2948.28 -2957.51 -2968.53 -2977.43 -2986.76 -2998.23 -3005.82 -3013.26 -3016.52 -3024.01 -3029.80 -3030.46 -3031.79 -3033.56 -3039.09 -3041.58 -3047.06 -3050.82 -3054.40 -3057.28 -3061.48 -3065.88 -3069.42 -3072.77 -3074.44 -3076.31 -3079.50 -3085.60 -3086.49 -3091.11 -3096.77 -3104.20 -3111.62 -3118.63 -3127.74 -3131.43 -3136.98 -3144.83 -3154.77 -3163.18 -3170.86 -3175.82 -3180.05 -3183.88 -3188.70 -3188.15 -3183.23 -3182.00 -3177.95 -3180.61 -3182.25 -3184.37 -3184.49 -3182.19 -3183.53 -3186.50 -3187.79 -3187.98 -3185.97 -3184.16 -3184.83 -3186.43 -3187.96 -3187.70 -3189.64 -3194.34 -3196.02 -3200.30 -3203.94 -3204.55 -3200.79 -3198.28 -3197.80 -3193.45 -3187.94 -3184.21 -3179.79 -3176.21 -3174.89 -3172.49 -3171.21 -3169.28 -3169.27 -3168.37 -3168.49 -3170.31 -3168.26 -3166.17 -3165.57 -3169.18 -3170.82 -3171.82 -3173.25 -3174.62 -3174.67 -3176.60 -3175.05 -3170.81
-2968.08 -2965.42 -2963.65 -2960.31 -2958.19 -2954.20 -2948.93 -2945.84 -2944.87 -2945.25 -2941.28 -2937.99 -2936.91 -2936.12 -2935.75 -2934.87 -2935.01 -2933.50 -2932.96 -2931.45 -2932.10 -2930.84 -2929.95 -2928.15 -2928.57 -2931.95 -2935.49 -2939.12 -2942.77 -2950.95 -2958.40 -2966.17 -2975.38 -2982.16 -2989.55 -2997.46 -3043.78 -3035.87 -3028.60 -3039.21 -3047.83 -3053.68 -3065.85 -3074.68 -3082.52 -3088.86 -3097.17 -3103.89 -3109.41 -3115.04 -3120.82 -3124.80 -3129.02 -3134.93 -3140.98 -3145.19 -3146.31 -3146.68 -3147.04 -3147.56 -3147.85 -3144.02 -3142.46 -3140.92 -3141.40 -3140.79 -3142.19 -3144.43 -3141.55 -3138.79 -3138.24 -3138.54 -3136.90 -3133.98 -3131.32 -3129.22 -3128.49 -3130.09 -3130.96 -3131.77 -3134.82 -3135.58 -3137.44 -3138.20 -3140.03 -3135.36 -3130.29 -3125.90 -3121.56 -3115.19 -3108.07 -3099.70 -3091.05 -3081.99 -3074.26 -3065.56 -3050.49 -3049.51 -3039.85 -3033.31 -3025.55 -3015.95 -3005.99 -2996.02 -2992.74 -2992.30 -2988.09 -2982.89 -2978.09 -2971.07 -2963.84 -2957.75 -2950.79 -2943.29 -2934.96 -2926.89 -2920.12 -2917.14 -2914.34 -2910.71 -2907.97 -2907.70 -2910.17 -2908.42 -2907.33 -2905.57 -2904.29 -2901.34 -2902.07 -2902.38 -2902.60 -2902.48 -2904.38 -2907.93 -2911.54 -2917.39 -2920.86 -2923.19 -2928.14 -2936.41 -2945.31 -2953.42 -2964.60 -2973.56 -2982.75 -2991.86 -3003.16 -3010.33 -3016.31 -3021.66 -3029.17 -3033.49 -3037.35 -3038.83 -3038.97 -3041.44 -3045.17 -3048.86 -3050.99 -3055.00 -3057.26 -3056.84 -3061.16 -3066.37 -3069.83 -3070.10 -3073.64 -3077.76 -3082.81 -3084.91 -3089.39 -3092.34 -3097.16 -3103.65 -3108.94 -3115.98 -3121.72 -3124.38 -3128.03 -3137.07 -3148.07 -3156.64 -3162.99 -3169.63 -3176.13 -3180.38 -3181.42 -3181.42 -3179.06 -3172.60 -3164.64 -3169.62 -3174.45 -3175.27 -3175.96 -3176.53 -3178.41 -3182.54 -3182.42 -3180.68 -3180.50 -3181.23 -3180.14 -3181.02 -3183.42 -3184.44 -3186.01 -3188.38 -3198.66 -3199.30 -3201.92 -3199.68 -3196.51 -3194.30 -3192.50 -3187.91 -3181.21 -3177.19 -3173.57 -3169.25 -3167.00 -3167.19 -3165.93 -3163.88 -3162.26 -3164.56 -3165.53 -3163.86 -3163.29 -3161.77 -3162.53 -3163.82 -3165.56 -3166.10 -3167.59 -3169.40 -3169.85 -3170.10 -3170.49 -3167.02
-2969.55 -2967.54 -2967.70 -2967.14 -2962.34 -2957.52 -2953.82 -2949.59 -2948.38 -2945.59 -2943.05 -2939.75 -2938.17 -2938.74 -2937.57 -2937.31 -2936.10 -2935.01 -2932.48 -2932.09 -2931.53 -2926.92 -2922.78 -2923.46 -2924.27 -2925.40 -2929.02 -2933.01 -2938.37 -2943.82 -2952.41 -2962.15 -2980.21 -2981.65 -2979.27 -2990.55 -3165.57 -3096.03 -3017.46 -3040.62 -3047.01 -3050.48 -3058.17 -3069.20 -3077.41 -3082.30 -3088.56 -3094.92 -3102.87 -3105.70 -3111.71 -3115.79 -3119.77 -3128.13 -3134.51 -3138.26 -3140.26 -3142.44 -3143.94 -3142.51 -3141.81 -3140.78 -3137.44 -3135.60 -3135.65 -3137.13 -3138.53 -3137.85 -3138.46 -3135.99 -3137.95 -3138.25 -3136.08 -3133.79 -3133.42 -3132.97 -3132.97 -3134.54 -3136.97 -3137.84 -3137.30 -3141.82 -3144.83 -3147.08 -3145.50 -3143.25 -3140.15 -3136.74 -3133.80 -3127.39 -3120.82 -3110.62 -3101.28 -3089.34 -3080.01 -3070.36 -3056.77 -3048.62 -3020.57 -3025.48 -3019.33 -3010.71 -3001.48 -2996.03 -2992.42 -2991.27 -2989.88 -2985.76 -2982.94 -2976.99 -2972.07 -2967.31 -2963.17 -2956.36 -2948.65 -2942.06 -2940.37 -2935.34 -2931.41 -2928.54 -2926.57 -2926.76 -2925.92 -2927.27 -2924.90 -2923.02 -2923.01 -2922.18 -2924.42 -2925.76 -2926.57 -2925.35 -2928.10 -2931.35 -2934.52 -2935.60 -2940.04 -2941.12 -2944.65 -2951.27 -2960.58 -2969.73 -2978.07 -2988.62 -2998.54 -3008.03 -3017.59 -3024.47 -3028.51 -3033.58 -3039.56 -3042.48 -3044.96 -3046.00 -3048.33 -3047.63 -3050.93 -3054.04 -3056.88 -3057.27 -3058.65 -3060.85 -3062.41 -3066.58 -3068.53 -3069.41 -3073.67 -3078.39 -3083.00 -3086.03 -3090.14 -3095.12 -3099.11 -3103.37 -3110.65 -3114.59 -3117.57 -3118.17 -3123.85 -3131.60 -3139.19 -3147.43 -3153.89 -3160.43 -3168.87 -3173.07 -3170.31 -3175.00 -3174.42 -3173.73 -3167.04 -3168.45 -3169.91 -3168.12 -3169.10 -3170.07 -3173.13 -3173.91 -3176.10 -3175.98 -3175.13 -3175.16 -3175.82 -3176.57 -3179.43 -3180.21 -3180.90 -3184.27 -3190.67 -3194.54 -3193.42 -3192.29 -3191.44 -3188.00 -3184.16 -3179.69 -3175.12 -3169.64 -3165.91 -3164.29 -3162.95 -3160.67 -3159.77 -3157.27 -3157.51 -3159.59 -3160.05 -3157.99 -3156.07 -3158.73 -3158.39 -3159.07 -3161.42 -3162.30 -3161.73 -3160.82 -3163.65 -3164.27 -3162.48 -3157.78
-2969.58 -2972.14 -2973.69 -2972.96 -2968.51 -2963.10 -2959.56 -2956.10 -2950.12 -2947.92 -2944.65 -2940.69 -2937.63 -2937.77 -2939.81 -2937.24 -2934.96 -2934.25 -2933.39 -2931.15 -2928.74 -2924.97 -2920.68 -2919.78 -2919.51 -2920.04 -2922.24 -2927.70 -2931.06 -2936.41 -2944.06 -2985.04 -3150.29 -3057.94 -2968.87 -2985.95 -3174.17 -3094.88 -3028.29 -3149.43 -3093.32 -3044.25 -3052.85 -3061.56 -3069.72 -3075.51 -3080.17 -3088.20 -3095.05 -3097.11 -3099.15 -3105.69 -3112.61 -3117.89 -3125.09 -3129.67 -3132.44 -3133.37 -3135.29 -3136.84 -3137.46 -3136.10 -3134.70 -3131.68 -3132.63 -3134.77 -3133.50 -3132.69 -3133.05 -3134.79 -3133.38 -3134.58 -3135.80 -3133.47 -3133.54 -3134.89 -3138.10 -3140.85 -3143.44 -3144.38 -3145.77 -3148.55 -3153.12 -3153.41 -3153.16 -3153.31 -3152.02 -3149.72 -3145.48 -3144.16 -3136.24 -3125.31 -3113.71 -3102.08 -3089.51 -3068.21 -3028.59 -3037.32 -3033.80 -2992.39 -2987.13 -2995.72 -2999.96 -2995.38 -2993.34 -2993.94 -2993.69 -2992.43 -2987.16 -2984.50 -2982.11 -2978.32 -2972.87 -2968.44 -2963.61 -2960.26 -2957.26 -2955.33 -2952.07 -2949.30 -2948.87 -2946.13 -2946.67 -2945.45 -2944.20 -2940.54 -2940.40 -2944.56 -2945.73 -2947.37 -2948.70 -2950.77 -2952.02 -2955.47 -2956.91 -2959.08 -2959.16 -2959.90 -2962.85 -2968.51 -2977.44 -2983.36 -2991.55 -3000.93 -3015.21 -3023.47 -3030.12 -3037.32 -3042.90 -3047.34 -3051.20 -3054.36 -3054.97 -3053.81 -3054.25 -3056.02 -3056.98 -3059.92 -3061.42 -3059.55 -3061.00 -3062.86 -3065.34 -3065.48 -3068.35 -3070.85 -3072.68 -3077.50 -3084.31 -3088.23 -3091.18 -3095.44 -3101.28 -3105.93 -3111.16 -3125.79 -3120.04 -3116.14 -3121.44 -3126.15 -3137.91 -3140.07 -3145.85 -3143.84 -3155.38 -3166.34 -3169.47 -3169.04 -3168.40 -3167.08 -3167.54 -3167.58 -3166.36 -3165.36 -3164.43 -3167.12 -3167.81 -3168.48 -3169.20 -3168.09 -3167.47 -3166.75 -3171.36 -3173.30 -3173.28 -3174.11 -3178.25 -3180.95 -3184.41 -3186.09 -3186.99 -3183.97 -3181.64 -3179.60 -3175.44 -3171.68 -3166.82 -3162.71 -3158.92 -3158.90 -3158.77 -3154.32 -3152.64 -3152.45 -3153.15 -3151.55 -3152.17 -3151.09 -3151.79 -3150.82 -3153.50 -3154.62 -3156.34 -3157.86 -3156.28 -3156.82 -3158.06 -3158.40 -3153.96 -3148.43
-2971.63 -2975.52 -2976.70 -2975.33 -2973.30 -2970.06 -2964.43 -2960.17 -2955.64 -2951.15 -2946.26 -2942.67 -2939.15 -2939.10 -2937.17 -2936.19 -2931.20 -2933.14 -2932.83 -2929.13 -2925.82 -2921.76 -2918.83 -2916.13 -2916.05 -2917.47 -2918.40 -2920.10 -2923.69 -2929.28 -2936.94 -2973.45 -3121.09 -3041.55 -2961.02 -2979.18 -3150.71 -3079.20 -3021.79 -3132.94 -3081.51 -3035.97 -3047.27 -3055.14 -3058.45 -3065.28 -3073.60 -3079.56 -3086.42 -3087.99 -3092.11 -3098.25 -3104.38 -3110.70 -3114.92 -3121.29 -3122.81 -3124.72 -3127.06 -3131.52 -3131.61 -3129.90 -3129.99 -3131.96 -3131.56 -3131.54 -3131.17 -3129.98 -3130.29 -3129.69 -3130.75 -3131.14 -3132.01 -3132.42 -3131.63 -3137.31 -3142.09 -3147.44 -3148.12 -3152.21 -3155.99 -3157.97 -3159.80 -3162.66 -3162.76 -3162.70 -3163.68 -3162.87 -3162.29 -3160.06 -3153.93 -3142.95 -3129.52 -3116.71 -3099.26 -3075.23 -3035.47 -3041.73 -3035.38 -2994.45 -2990.64 -2998.09 -2998.41 -2997.39 -2998.76 -3000.47 -2999.94 -2997.97 -2996.55 -2993.51 -2992.30 -2988.55 -2982.58 -2980.69 -2978.26 -2975.40 -2973.65 -2973.08 -2971.43 -2967.41 -2965.26 -2967.60 -2965.63 -2963.68 -2960.30 -2958.98 -2959.66 -2961.97 -2964.91 -2965.63 -2967.77 -2971.02 -2972.32 -2975.07 -2978.67 -2980.06 -2978.44 -2978.04 -2981.87 -2988.12 -2992.33 -2998.79 -3005.44 -3016.00 -3026.55 -3035.31 -3042.36 -3048.45 -3054.49 -3058.03 -3061.19 -3064.19 -3064.09 -3061.89 -3061.71 -3063.56 -3063.80 -3062.72 -3061.53 -3062.69 -3062.02 -3064.24 -3065.05 -3066.82 -3067.85 -3070.53 -3075.34 -3080.23 -3087.04 -3090.22 -3091.84 -3096.51 -3103.19 -3107.72 -3110.60 -3121.88 -3119.70 -3116.02 -3119.01 -3124.96 -3136.11 -3137.14 -3138.07 -3141.42 -3151.52 -3159.53 -3163.16 -3162.68 -3162.51 -3164.55 -3165.57 -3166.65 -3166.32 -3164.88 -3163.67 -3161.51 -3163.99 -3164.25 -3162.24 -3160.94 -3160.21 -3162.16 -3162.81 -3165.86 -3167.10 -3169.79 -3174.08 -3177.82 -3179.66 -3180.98 -3180.70 -3177.57 -3173.49 -3171.01 -3168.95 -3162.11 -3157.71 -3155.76 -3154.17 -3153.50 -3151.37 -3150.53 -3148.05 -3148.10 -3147.62 -3146.81 -3146.06 -3145.77 -3144.01 -3145.38 -3148.50 -3151.04 -3151.32 -3150.62 -3152.90 -3152.91 -3153.22 -3151.39 -3148.00 -3142.52
-2971.98 -2977.35 -2978.18 -2978.64 -2976.71 -2973.29 -2968.90 -2964.27 -2960.83 -2954.64 -2948.12 -2944.04 -2942.35 -2938.99 -2935.15 -2932.40 -2930.02 -2928.35 -2927.13 -2925.41 -2921.42 -2918.64 -2914.73 -2914.48 -2914.47 -2915.08 -2914.50 -2914.91 -2918.39 -2924.80 -2929.62 -2941.31 -2979.67 -2967.35 -2955.91 -2967.29 -3017.01 -3007.26 -3004.13 -3037.96 -3034.38 -3031.83 -3039.50 -3048.59 -3076.11 -3089.09 -3074.35 -3071.44 -3076.47 -3078.26 -3083.99 -3089.96 -3095.72 -3103.56 -3109.40 -3110.63 -3114.17 -3117.26 -3119.20 -3123.08 -3123.97 -3124.42 -3125.88 -3127.89 -3128.99 -3128.75 -3129.40 -3129.55 -3126.50 -3127.89 -3128.92 -3129.59 -3128.57 -3128.02 -3133.31 -3137.47 -3143.18 -3149.28 -3154.03 -3159.00 -3164.41 -3167.82 -3169.78 -3173.31 -3174.18 -3175.51 -3176.35 -3180.30 -3179.43 -3177.53 -3172.17 -3163.81 -3149.49 -3131.47 -3114.33 -3092.18 -3067.33 -3058.66 -3046.49 -3026.94 -3016.92 -3011.45 -3006.33 -3005.01 -3007.77 -3010.69 -3007.98 -3007.87 -3006.52 -3005.80 -3002.52 -3000.01 -2997.39 -2993.13 -2990.88 -2989.78 -2989.29 -2989.26 -2987.18 -2984.90 -2983.42 -2984.76 -2984.32 -2981.16 -2978.37 -2979.28 -2979.01 -2980.99 -2982.21 -2985.96 -2985.65 -2988.26 -2993.13 -2996.04 -2997.25 -2998.96 -2999.56 -3000.63 -3004.21 -3008.64 -3011.68 -3016.09 -3024.63 -3031.36 -3039.33 -3047.38 -3053.42 -3057.61 -3060.11 -3067.40 -3070.76 -3071.52 -3070.36 -3069.36 -3069.07 -3070.07 -3069.34 -3067.27 -3064.61 -3063.33 -3063.26 -3061.94 -3064.90 -3067.52 -3068.16 -3071.07 -3077.22 -3085.13 -3088.10 -3091.75 -3094.84 -3099.80 -3104.13 -3108.49 -3110.72 -3114.71 -3115.63 -3116.87 -3119.31 -3120.69 -3130.44 -3132.77 -3137.82 -3144.29 -3151.59 -3153.68 -3155.67 -3159.72 -3159.35 -3161.09 -3161.89 -3163.48 -3161.78 -3160.76 -3160.22 -3160.77 -3159.96 -3158.71 -3154.91 -3151.75 -3154.12 -3154.58 -3154.89 -3156.27 -3160.11 -3164.20 -3166.76 -3172.89 -3174.72 -3175.49 -3173.38 -3171.43 -3167.91 -3165.21 -3161.28 -3156.27 -3150.15 -3149.70 -3149.22 -3145.88 -3145.91 -3144.37 -3143.58 -3141.18 -3141.22 -3142.44 -3139.94 -3138.31 -3138.39 -3140.36 -3142.22 -3144.36 -3144.91 -3145.50 -3146.91 -3149.15 -3146.80 -3145.19 -3141.02 -3135.13
-2975.08 -2978.17 -2982.56 -2980.32 -2976.66 -2974.58 -2971.90 -2967.75 -2960.15 -2956.44 -2951.42 -2946.91 -2943.40 -2940.01 -2934.46 -2929.99 -2926.48 -2924.36 -2922.48 -2919.91 -2917.08 -2910.06 -2909.77 -2912.08 -2912.76 -2911.86 -2911.42 -2913.94 -2915.28 -2919.43 -2924.55 -2929.47 -2931.71 -2938.51 -2947.59 -2958.68 -2968.44 -2981.59 -2993.12 -3002.56 -3018.23 -3024.79 -3032.67 -3046.41 -3129.93 -3152.51 -3084.68 -3062.96 -3068.88 -3084.83 -3082.35 -3082.11 -3088.69 -3096.62 -3100.25 -3103.49 -3106.47 -3111.06 -3113.96 -3114.27 -3117.73 -3118.57 -3121.10 -3123.04 -3126.73 -3127.26 -3125.81 -3125.88 -3126.72 -3127.38 -3128.18 -3127.69 -3125.66 -3127.39 -3131.65 -3138.68 -3143.64 -3150.81 -3158.78 -3162.92 -3170.36 -3175.77 -3180.68 -3182.45 -3184.83 -3189.00 -3192.49 -3195.05 -3197.02 -3195.64 -3192.84 -3181.97 -3165.80 -3146.89 -3127.32 -3108.09 -3086.28 -3073.72 -3059.83 -3047.00 -3034.76 -3023.25 -3018.07 -3023.55 -3026.26 -3021.68 -3020.02 -3018.02 -3017.90 -3016.51 -3014.57 -3011.64 -3008.54 -3006.27 -3003.80 -3005.44 -3005.02 -3002.40 -2999.62 -2999.96 -2999.21 -2999.12 -2998.46 -2997.34 -2996.09 -2996.39 -2998.92 -3000.14 -3002.10 -3001.95 -3002.30 -3005.52 -3009.73 -3013.85 -3013.30 -3015.11 -3018.71 -3020.79 -3023.18 -3027.34 -3032.54 -3036.68 -3041.29 -3047.94 -3054.89 -3058.51 -3063.12 -3064.91 -3068.08 -3072.68 -3076.21 -3076.07 -3074.38 -3077.16 -3076.11 -3075.30 -3074.10 -3071.88 -3067.59 -3064.30 -3063.42 -3063.99 -3063.06 -3064.75 -3068.09 -3073.11 -3080.88 -3086.99 -3091.12 -3093.04 -3098.51 -3102.83 -3105.78 -3110.68 -3113.31 -3113.17 -3112.89 -3116.10 -3120.71 -3124.14 -3127.22 -3132.94 -3137.31 -3144.14 -3149.38 -3152.15 -3153.96 -3155.56 -3157.07 -3157.60 -3159.47 -3160.42 -3157.65 -3156.52 -3156.21 -3158.01 -3155.77 -3152.56 -3150.49 -3149.11 -3147.49 -3148.59 -3148.83 -3150.87 -3153.50 -3157.89 -3162.62 -3165.23 -3168.32 -3167.29 -3165.72 -3165.83 -3164.96 -3160.17 -3155.26 -3151.01 -3146.86 -3144.01 -3142.59 -3142.54 -3138.64 -3136.91 -3134.98 -3135.53 -3135.18 -3135.43 -3133.92 -3130.69 -3133.72 -3136.68 -3137.54 -3138.52 -3140.43 -3140.57 -3140.86 -3141.18 -3141.88 -3139.20 -3132.60 -3128.88
-2977.26 -2981.71 -2983.62 -2982.27 -2978.63 -2975.03 -2972.88 -2966.61 -2961.58 -2956.82 -2953.90 -2947.99 -2943.01 -2939.98 -2935.90 -2927.51 -2923.32 -2921.43 -2918.32 -2913.79 -2908.64 -2905.82 -2905.11 -2906.85 -2908.63 -2907.07 -2909.00 -2910.85 -2913.46 -2915.45 -2920.71 -2924.82 -2927.59 -2931.50 -2941.64 -2951.66 -2962.36 -2973.39 -2985.20 -2998.50 -3010.94 -3019.28 -3025.53 -3034.12 -3055.98 -3063.99 -3056.62 -3056.78 -3064.48 -3136.11 -3103.53 -3072.10 -3082.18 -3086.60 -3091.61 -3095.70 -3099.25 -3101.91 -3106.44 -3109.52 -3110.51 -3113.81 -3115.31 -3119.06 -3122.77 -3123.33 -3122.42 -3121.90 -3125.81 -3125.98 -3125.51 -3124.76 -3127.03 -3126.96 -3131.13 -3137.13 -3145.13 -3151.07 -3158.71 -3167.11 -3175.00 -3181.99 -3186.59 -3190.18 -3194.93 -3201.33 -3206.80 -3208.33 -3210.65 -3211.41 -3207.41 -3194.91 -3178.65 -3158.65 -3137.78 -3115.38 -3096.60 -3085.73 -3070.96 -3059.42 -3046.16 -3037.17 -3033.46 -3052.76 -3058.31 -3040.46 -3031.91 -3028.91 -3026.42 -3025.74 -3025.29 -3020.47 -3018.32 -3017.02 -3018.37 -3017.08 -3017.13 -3015.24 -3012.99 -3012.91 -3011.78 -3011.61 -3011.19 -3011.52 -3010.98 -3012.28 -3015.69 -3019.69 -3018.54 -3018.97 -3021.26 -3024.61 -3027.26 -3027.58 -3030.42 -3030.51 -3033.70 -3036.70 -3040.51 -3044.94 -3048.72 -3052.36 -3056.55 -3062.31 -3068.27 -3068.42 -3068.93 -3072.17 -3073.53 -3076.05 -3077.85 -3078.53 -3077.84 -3076.73 -3079.25 -3079.17 -3077.57 -3074.90 -3070.90 -3066.65 -3065.53 -3064.92 -3062.33 -3062.39 -3068.28 -3074.45 -3080.11 -3086.43 -3092.22 -3095.69 -3099.35 -3103.23 -3108.40 -3111.48 -3113.17 -3113.27 -3114.24 -3116.87 -3121.02 -3124.30 -3126.74 -3132.27 -3138.66 -3143.22 -3147.87 -3151.34 -3152.32 -3153.10 -3155.42 -3159.55 -3158.70 -3157.00 -3155.61 -3154.27 -3153.67 -3153.46 -3152.01 -3148.53 -3145.93 -3145.36 -3144.89 -3144.24 -3145.81 -3145.90 -3147.57 -3152.14 -3157.16 -3159.81 -3159.09 -3159.62 -3159.87 -3158.89 -3157.52 -3155.05 -3151.67 -3147.28 -3143.49 -3141.61 -3139.83 -3137.01 -3133.66 -3128.18 -3128.27 -3128.77 -3126.95 -3126.03 -3125.61 -3126.86 -3127.17 -3131.36 -3133.72 -3134.65 -3135.29 -3136.27 -3136.02 -3136.84 -3135.52 -3131.00 -3125.64 -3119.84
-2979.49 -2982.66 -2983.03 -2981.78 -2979.98 -2977.18 -2970.92 -2967.33 -2960.88 -2955.97 -2952.42 -2948.15 -2945.00 -2938.90 -2933.75 -2926.45 -2921.47 -2919.55 -2915.95 -2909.29 -2905.00 -2902.62 -2901.68 -2901.90 -2904.63 -2906.31 -2905.05 -2908.13 -2911.41 -2915.31 -2918.36 -2920.30 -2925.12 -2928.30 -2937.53 -2946.78 -2956.65 -2967.52 -2980.71 -2991.69 -3004.41 -3012.13 -3021.30 -3026.88 -3033.34 -3042.63 -3048.58 -3053.04 -3058.58 -3144.98 -3106.53 -3066.88 -3077.24 -3079.95 -3084.92 -3088.72 -3093.67 -3096.35 -3101.50 -3105.15 -3107.24 -3108.72 -3115.37 -3118.64 -3120.10 -3120.44 -3119.80 -3121.79 -3122.06 -3124.05 -3124.82 -3124.51 -3126.34 -3127.65 -3131.57 -3139.43 -3146.77 -3152.13 -3158.67 -3167.58 -3177.86 -3180.68 -3187.48 -3193.55 -3200.08 -3206.14 -3212.63 -3217.13 -3218.36 -3218.93 -3214.42 -3202.69 -3184.97 -3164.30 -3141.29 -3119.93 -3101.98 -3091.77 -3077.82 -3063.84 -3056.83 -3047.30 -3044.61 -3059.86 -3065.28 -3048.69 -3038.12 -3036.21 -3034.70 -3032.06 -3029.36 -3024.96 -3022.72 -3024.14 -3026.04 -3024.48 -3023.38 -3023.47 -3022.09 -3018.48 -3020.70 -3020.35 -3019.16 -3017.85 -3019.97 -3023.36 -3026.71 -3029.35 -3030.92 -3031.08 -3033.09 -3036.50 -3037.40 -3038.71 -3039.29 -3040.76 -3042.05 -3044.57 -3051.15 -3052.20 -3056.32 -3060.05 -3065.95 -3069.32 -3071.56 -3073.53 -3074.20 -3074.20 -3076.33 -3075.74 -3077.05 -3077.91 -3076.50 -3077.32 -3079.02 -3080.53 -3078.11 -3073.02 -3072.27 -3069.33 -3067.71 -3064.70 -3063.67 -3064.79 -3068.11 -3073.41 -3081.18 -3084.91 -3090.73 -3092.90 -3096.67 -3101.98 -3107.20 -3110.71 -3110.18 -3113.46 -3115.98 -3117.08 -3120.64 -3124.73 -3128.71 -3131.43 -3137.13 -3142.15 -3146.54 -3148.51 -3150.86 -3152.16 -3155.78 -3158.63 -3159.15 -3156.48 -3155.18 -3156.31 -3152.68 -3151.80 -3150.51 -3147.58 -3144.01 -3142.99 -3145.07 -3144.36 -3143.34 -3144.39 -3147.29 -3150.00 -3155.19 -3154.37 -3153.55 -3153.57 -3154.36 -3153.55 -3152.30 -3152.75 -3148.65 -3144.96 -3142.59 -3142.50 -3140.08 -3135.12 -3130.62 -3126.94 -3124.57 -3123.40 -3122.02 -3118.83 -3120.16 -3120.98 -3124.29 -3126.83 -3131.22 -3133.82 -3132.63 -3134.23 -3135.29 -3133.69 -3129.61 -3126.20 -3121.66 -3116.37
-2978.88 -2982.29 -2983.11 -2981.90 -2980.51 -2976.88 -2973.32 -2967.13 -2962.13 -2955.79 -2951.54 -2949.18 -2943.81 -2936.49 -2929.27 -2924.64 -2920.22 -2915.69 -2912.16 -2906.55 -2901.60 -2898.97 -2898.61 -2899.68 -2901.12 -2900.98 -2901.96 -2903.14 -2908.49 -2910.92 -2912.25 -2916.52 -2922.28 -2927.93 -2932.87 -2942.81 -2953.32 -2961.50 -2972.17 -2984.81 -2996.57 -3003.61 -3010.88 -3017.45 -3026.06 -3034.20 -3042.95 -3045.93 -3052.13 -3063.27 -3063.20 -3065.17 -3075.58 -3077.16 -3076.36 -3078.34 -3084.46 -3089.05 -3092.24 -3096.71 -3100.16 -3106.03 -3111.10 -3115.46 -3116.43 -3115.19 -3117.63 -3117.78 -3118.76 -3119.90 -3121.40 -3121.21 -3122.62 -3126.98 -3133.41 -3138.91 -3144.40 -3152.91 -3160.44 -3169.08 -3177.53 -3182.33 -3187.36 -3194.82 -3203.16 -3209.95 -3218.88 -3223.91 -3226.51 -3224.86 -3222.74 -3212.41 -3191.52 -3169.26 -3148.58 -3126.04 -3108.10 -3098.09 -3084.87 -3073.94 -3064.37 -3058.95 -3055.32 -3057.19 -3060.19 -3054.05 -3050.94 -3048.58 -3045.95 -3040.72 -3036.22 -3033.71 -3032.60 -3031.26 -3032.62 -3033.05 -3032.08 -3031.34 -3030.94 -3031.82 -3031.18 -3031.57 -3030.15 -3030.52 -3034.99 -3039.10 -3042.50 -3043.98 -3046.92 -3048.95 -3050.25 -3052.32 -3055.71 -3054.90 -3054.71 -3054.37 -3057.65 -3059.98 -3062.74 -3064.73 -3065.23 -3070.72 -3075.03 -3076.22 -3077.01 -3077.37 -3077.85 -3076.61 -3077.73 -3079.50 -3078.98 -3075.73 -3077.12 -3077.12 -3079.09 -3077.29 -3076.47 -3074.07 -3071.13 -3071.23 -3067.81 -3066.44 -3066.64 -3067.68 -3070.26 -3074.98 -3082.91 -3085.41 -3087.63 -3090.07 -3094.91 -3098.10 -3101.90 -3104.37 -3107.30 -3109.59 -3114.57 -3118.46 -3120.90 -3125.22 -3127.73 -3130.80 -3136.79 -3141.82 -3144.56 -3144.62 -3147.41 -3152.69 -3155.89 -3158.19 -3160.39 -3158.34 -3157.24 -3155.86 -3155.71 -3152.20 -3149.63 -3144.47 -3135.03 -3139.39 -3142.71 -3142.35 -3140.79 -3141.75 -3146.14 -3147.16 -3147.90 -3149.26 -3148.53 -3146.96 -3146.50 -3146.55 -3146.25 -3143.43 -3142.15 -3138.94 -3139.11 -3138.91 -3136.05 -3130.86 -3126.72 -3123.29 -3119.81 -3115.80 -3114.09 -3112.19 -3110.27 -3112.72 -3117.11 -3121.94 -3124.05 -3125.23 -3129.36 -3130.01 -3131.47 -3128.67 -3124.66 -3119.70 -3115.59 -3108.78
-2978.72 -2982.16 -2983.19 -2982.01 -2979.15 -2979.15 -2975.50 -2968.74 -2960.93 -2957.89 -2954.10 -2948.40 -2942.29 -2933.69 -2927.32 -2920.74 -2915.54 -2913.15 -2907.44 -2904.76 -2899.05 -2895.78 -2896.48 -2898.71 -2896.60 -2896.03 -2896.45 -2899.70 -2901.15 -2904.72 -2907.69 -2911.73 -2917.58 -2922.57 -2931.02 -2938.76 -2947.74 -2956.54 -2965.73 -2977.62 -2988.18 -2992.98 -2999.30 -3008.79 -3017.37 -3025.60 -3032.78 -3040.65 -3045.28 -3047.42 -3052.75 -3068.82 -3122.64 -3085.36 -3068.28 -3068.92 -3075.68 -3087.41 -3086.06 -3085.32 -3092.16 -3099.44 -3104.91 -3109.81 -3111.86 -3112.96 -3111.15 -3114.28 -3115.43 -3115.88 -3116.58 -3116.44 -3120.07 -3123.99 -3130.75 -3136.03 -3142.13 -3151.55 -3160.32 -3166.92 -3175.51 -3182.01 -3187.22 -3193.40 -3200.88 -3212.74 -3218.14 -3223.74 -3226.78 -3229.85 -3227.75 -3215.63 -3195.28 -3172.06 -3151.31 -3131.20 -3112.14 -3101.33 -3090.87 -3078.40 -3069.88 -3066.02 -3065.31 -3066.01 -3065.76 -3064.38 -3062.39 -3060.18 -3055.46 -3050.74 -3045.72 -3041.51 -3040.33 -3039.10 -3040.36 -3040.89 -3038.59 -3036.53 -3038.12 -3040.92 -3042.19 -3041.05 -3043.46 -3046.11 -3048.93 -3054.67 -3058.47 -3062.28 -3062.93 -3064.92 -3067.58 -3069.13 -3070.54 -3069.65 -3068.90 -3069.80 -3073.12 -3074.19 -3074.45 -3075.35 -3078.09 -3078.22 -3080.65 -3082.21 -3080.87 -3079.85 -3078.78 -3080.32 -3079.90 -3080.75 -3079.01 -3076.78 -3076.75 -3078.31 -3077.43 -3074.63 -3073.48 -3071.75 -3070.07 -3067.61 -3068.67 -3065.82 -3065.02 -3068.28 -3077.15 -3079.76 -3081.44 -3083.76 -3088.54 -3088.92 -3089.63 -3092.16 -3093.09 -3097.08 -3100.67 -3104.35 -3110.43 -3115.68 -3121.11 -3121.95 -3127.32 -3132.34 -3137.51 -3140.54 -3142.62 -3143.42 -3146.28 -3150.83 -3154.75 -3158.08 -3160.19 -3160.13 -3157.67 -3158.36 -3157.11 -3154.50 -3148.17 -3143.26 -3141.70 -3140.33 -3140.34 -3139.73 -3139.38 -3140.03 -3141.60 -3143.73 -3144.66 -3142.59 -3141.78 -3140.06 -3139.40 -3140.02 -3138.40 -3135.08 -3132.32 -3134.25 -3133.16 -3131.10 -3130.13 -3125.82 -3121.18 -3117.09 -3114.06 -3110.66 -3106.88 -3104.40 -3102.89 -3103.96 -3109.76 -3112.55 -3114.54 -3117.32 -3120.38 -3124.05 -3123.22 -3121.93 -3119.79 -3112.98 -3108.40 -3103.77
-2981.12 -2981.24 -2979.51 -2979.84 -2977.72 -2977.36 -2973.32 -2968.04 -2961.96 -2960.04 -2956.21 -2949.05 -2940.50 -2934.56 -2925.34 -2918.53 -2912.62 -2910.40 -2904.68 -2897.99 -2896.44 -2895.78 -2895.44 -2895.47 -2894.88 -2893.68 -2895.05 -2896.73 -2898.14 -2899.84 -2902.74 -2907.45 -2912.22 -2919.82 -2927.74 -2935.09 -2942.34 -2952.03 -2963.00 -2971.27 -2979.84 -2984.99 -2990.41 -2998.60 -3007.49 -3016.35 -3023.84 -3032.43 -3037.76 -3042.05 -3047.63 -3059.35 -3078.90 -3066.06 -3060.84 -3078.29 -3078.24 -3100.32 -3090.32 -3088.52 -3098.37 -3094.83 -3097.54 -3102.08 -3105.04 -3106.25 -3107.00 -3109.50 -3111.94 -3112.06 -3110.86 -3113.91 -3118.07 -3121.86 -3125.27 -3132.29 -3138.28 -3145.36 -3154.85 -3163.42 -3171.18 -3175.33 -3180.89 -3188.61 -3197.34 -3205.96 -3212.49 -3214.63 -3218.34 -3221.12 -3216.94 -3205.38 -3187.85 -3168.53 -3146.56 -3129.30 -3113.35 -3103.77 -3091.71 -3081.08 -3073.88 -3069.83 -3068.25 -3065.75 -3064.58 -3065.53 -3066.66 -3062.71 -3059.90 -3056.74 -3052.69 -3048.20 -3045.67 -3047.91 -3045.22 -3043.32 -3041.91 -3041.92 -3043.97 -3046.66 -3049.39 -3050.55 -3054.03 -3059.19 -3064.07 -3069.16 -3074.84 -3076.30 -3076.80 -3078.58 -3081.10 -3082.07 -3079.44 -3079.88 -3079.41 -3080.22 -3081.76 -3084.19 -3084.27 -3084.67 -3084.31 -3084.62 -3084.87 -3084.72 -3081.74 -3077.28 -3078.33 -3079.52 -3079.63 -3078.01 -3077.31 -3078.05 -3074.42 -3075.05 -3075.25 -3072.65 -3069.26 -3068.67 -3065.82 -3065.44 -3062.65 -3062.00 -3060.49 -3065.21 -3072.47 -3074.38 -3075.44 -3077.33 -3082.01 -3081.05 -3080.35 -3084.68 -3085.90 -3087.12 -3091.34 -3097.57 -3105.51 -3111.44 -3115.20 -3120.53 -3124.61 -3132.11 -3137.27 -3139.02 -3141.44 -3143.07 -3145.59 -3148.56 -3153.81 -3157.82 -3158.23 -3158.26 -3159.13 -3159.50 -3158.48 -3155.39 -3150.67 -3147.09 -3144.48 -3143.68 -3141.54 -3141.50 -3140.80 -3138.82 -3138.55 -3139.98 -3140.27 -3136.22 -3133.61 -3134.84 -3134.37 -3131.78 -3131.20 -3128.63 -3127.33 -3127.48 -3126.56 -3125.53 -3122.03 -3118.92 -3113.11 -3110.65 -3107.78 -3104.65 -3099.09 -3096.54 -3098.07 -3099.93 -3100.63 -3103.70 -3105.81 -3107.74 -3110.68 -3112.86 -3114.86 -3113.08 -3109.89 -3106.79 -3102.22 -3100.20
-2982.18 -2980.48 -2978.51 -2977.77 -2978.94 -2974.23 -2971.53 -2966.74 -2962.56 -2959.28 -2955.40 -2950.92 -2942.92 -2932.70 -2925.15 -2917.80 -2911.81 -2908.53 -2901.12 -2896.33 -2893.94 -2894.68 -2892.24 -2891.96 -2893.34 -2892.87 -2892.14 -2894.20 -2896.60 -2897.50 -2899.26 -2903.38 -2910.85 -2915.71 -2922.52 -2929.87 -2936.95 -2948.07 -2956.53 -2965.52 -2971.63 -2977.16 -2983.19 -2989.79 -2999.52 -3008.47 -3016.01 -3021.56 -3029.46 -3035.44 -3041.03 -3045.65 -3048.09 -3049.48 -3055.58 -3114.56 -3089.69 -3070.09 -3075.15 -3115.32 -3129.87 -3099.59 -3088.42 -3093.60 -3095.64 -3097.44 -3101.55 -3104.17 -3105.25 -3107.44 -3108.04 -3109.45 -3115.06 -3117.24 -3121.31 -3127.13 -3131.27 -3138.45 -3145.34 -3156.25 -3161.80 -3165.20 -3171.94 -3181.51 -3188.04 -3194.57 -3199.46 -3202.92 -3203.34 -3203.17 -3199.94 -3187.89 -3173.54 -3154.51 -3137.42 -3123.34 -3110.56 -3101.85 -3088.77 -3081.23 -3075.34 -3070.60 -3066.78 -3062.93 -3060.56 -3061.97 -3062.70 -3064.24 -3061.61 -3059.05 -3056.58 -3053.45 -3053.06 -3051.71 -3050.15 -3046.27 -3044.90 -3047.08 -3047.48 -3050.59 -3055.10 -3059.27 -3063.08 -3069.09 -3077.07 -3083.57 -3086.43 -3088.86 -3090.39 -3091.43 -3092.55 -3091.30 -3088.98 -3087.00 -3088.82 -3088.31 -3088.17 -3090.37 -3090.70 -3088.63 -3087.49 -3089.33 -3088.50 -3083.72 -3078.42 -3078.51 -3075.68 -3076.98 -3076.50 -3075.69 -3075.15 -3074.06 -3069.37 -3070.24 -3071.43 -3071.40 -3065.73 -3064.79 -3064.79 -3061.33 -3056.43 -3054.95 -3055.43 -3057.72 -3060.14 -3065.17 -3066.77 -3068.15 -3068.19 -3069.37 -3071.35 -3074.34 -3075.62 -3077.24 -3081.14 -3090.55 -3098.15 -3101.48 -3107.85 -3115.26 -3120.93 -3126.65 -3133.47 -3137.74 -3138.93 -3141.85 -3145.42 -3149.99 -3153.34 -3156.07 -3156.48 -3157.40 -3159.30 -3159.65 -3157.28 -3154.94 -3152.81 -3149.31 -3147.57 -3146.59 -3145.68 -3142.53 -3140.78 -3140.23 -3138.28 -3137.47 -3132.59 -3129.86 -3126.98 -3127.49 -3127.41 -3125.12 -3123.90 -3123.62 -3121.07 -3119.81 -3119.72 -3118.69 -3114.46 -3107.78 -3105.72 -3102.37 -3097.94 -3095.03 -3091.82 -3091.22 -3091.07 -3093.26 -3093.47 -3095.67 -3096.85 -3098.81 -3098.87 -3103.57 -3104.60 -3102.55 -3099.35 -3098.92 -3098.07 -3092.63
-2983.09 -2982.05 -2980.58 -2979.56 -2976.61 -2975.09 -2969.83 -2965.19 -2961.52 -2958.46 -2955.08 -2949.15 -2941.47 -2932.17 -2925.34 -2919.83 -2911.93 -2905.20 -2901.19 -2895.98 -2893.68 -2891.15 -2890.94 -2890.83 -2889.03 -2889.38 -2890.34 -2892.21 -2894.31 -2894.98 -2897.21 -2901.47 -2909.11 -2913.50 -2918.23 -2925.56 -2934.35 -2940.87 -2950.52 -2959.29 -2966.58 -2969.21 -2976.04 -2984.33 -2992.90 -3001.50 -3007.56 -3013.64 -3021.72 -3027.42 -3032.86 -3036.84 -3040.87 -3044.02 -3047.77 -3125.64 -3091.82 -3053.77 -3064.91 -3123.32 -3145.54 -3098.67 -3083.40 -3086.12 -3085.24 -3088.45 -3092.90 -3095.71 -3097.25 -3100.57 -3103.63 -3106.25 -3109.91 -3114.91 -3117.10 -3119.50 -3124.85 -3131.08 -3138.71 -3143.73 -3150.95 -3154.99 -3160.87 -3169.77 -3176.80 -3182.81 -3187.24 -3188.19 -3187.64 -3185.95 -3182.77 -3173.34 -3156.05 -3140.81 -3128.13 -3114.56 -3102.46 -3095.41 -3087.16 -3078.05 -3073.93 -3069.05 -3065.11 -3059.50 -3058.25 -3058.35 -3060.37 -3061.29 -3060.36 -3058.10 -3056.31 -3057.67 -3056.27 -3055.04 -3052.74 -3051.12 -3048.71 -3048.07 -3051.74 -3055.56 -3059.30 -3063.57 -3069.35 -3077.08 -3085.35 -3091.60 -3094.59 -3097.28 -3100.67 -3101.76 -3100.37 -3100.15 -3097.09 -3094.68 -3093.18 -3093.52 -3093.53 -3092.42 -3091.66 -3089.87 -3088.42 -3088.54 -3087.11 -3081.26 -3076.83 -3075.29 -3074.45 -3072.10 -3074.14 -3074.50 -3071.75 -3069.82 -3068.13 -3068.52 -3064.44 -3067.97 -3064.43 -3064.94 -3061.60 -3055.14 -3050.69 -3048.67 -3048.61 -3049.41 -3051.58 -3054.19 -3056.19 -3055.15 -3056.08 -3059.72 -3061.93 -3063.66 -3065.14 -3070.26 -3074.48 -3081.66 -3089.83 -3094.56 -3099.18 -3106.28 -3113.91 -3121.04 -3128.18 -3133.18 -3136.27 -3138.65 -3146.55 -3151.44 -3152.35 -3154.79 -3156.94 -3157.81 -3155.80 -3156.87 -3155.90 -3152.64 -3150.64 -3149.37 -3148.50 -3148.95 -3147.13 -3144.62 -3142.21 -3140.21 -3138.24 -3131.73 -3127.45 -3123.82 -3120.59 -3118.77 -3118.48 -3118.46 -3116.62 -3115.26 -3115.26 -3114.28 -3112.28 -3110.30 -3104.93 -3100.37 -3095.95 -3093.55 -3087.88 -3084.74 -3083.74 -3082.34 -3082.84 -3085.66 -3087.72 -3087.94 -3087.48 -3089.39 -3092.15 -3092.84 -3092.68 -3092.15 -3089.62 -3090.31 -3089.62 -3086.99
-2981.03 -2980.82 -2981.62 -2979.17 -2977.54 -2974.84 -2970.83 -2963.58 -2960.03 -2958.27 -2953.63 -2946.40 -2939.02 -2931.70 -2925.57 -2918.62 -2912.26 -2907.37 -2902.56 -2898.82 -2894.19 -2892.01 -2891.80 -2888.66 -2887.02 -2885.47 -2888.86 -2889.66 -2889.16 -2892.28 -2896.27 -2900.98 -2907.20 -2911.58 -2916.86 -2922.71 -2929.86 -2936.88 -2944.46 -2952.77 -2958.41 -2960.34 -2969.00 -2978.36 -2987.40 -2992.04 -3000.47 -3007.50 -3014.47 -3018.50 -3023.68 -3027.83 -3030.07 -3033.49 -3039.06 -3049.85 -3051.22 -3050.79 -3053.72 -3064.30 -3072.84 -3073.34 -3121.15 -3101.49 -3075.92 -3077.63 -3081.52 -3085.42 -3088.63 -3090.75 -3094.75 -3099.83 -3105.18 -3107.58 -3110.49 -3113.50 -3116.93 -3123.73 -3128.08 -3131.87 -3137.67 -3142.29 -3147.99 -3154.10 -3162.97 -3167.66 -3169.03 -3169.95 -3171.71 -3170.09 -3163.98 -3153.76 -3141.22 -3126.54 -3116.52 -3104.85 -3093.50 -3088.29 -3080.53 -3073.64 -3067.98 -3066.55 -3064.03 -3057.16 -3056.17 -3056.40 -3058.12 -3057.86 -3058.23 -3057.56 -3057.66 -3056.44 -3057.82 -3055.46 -3053.78 -3052.73 -3050.67 -3052.93 -3056.42 -3061.42 -3063.55 -3066.64 -3074.75 -3081.76 -3088.50 -3094.89 -3100.07 -3102.25 -3104.75 -3105.73 -3107.06 -3103.17 -3102.29 -3099.32 -3098.49 -3096.89 -3095.16 -3091.99 -3088.37 -3087.99 -3086.11 -3082.88 -3079.79 -3076.25 -3071.90 -3069.68 -3069.53 -3070.79 -3070.06 -3069.35 -3069.19 -3066.59 -3066.03 -3062.45 -3064.53 -3056.32 -3052.68 -3052.57 -3048.82 -3046.49 -3043.21 -3040.33 -3038.88 -3041.22 -3042.88 -3043.27 -3042.32 -3043.80 -3045.47 -3047.28 -3050.97 -3051.83 -3056.30 -3060.61 -3068.19 -3073.86 -3081.29 -3086.70 -3091.02 -3096.99 -3105.03 -3113.51 -3119.61 -3124.21 -3129.58 -3135.93 -3141.47 -3147.15 -3150.92 -3152.54 -3155.46 -3154.33 -3154.17 -3153.32 -3152.30 -3147.65 -3144.13 -3145.57 -3146.12 -3151.24 -3145.53 -3140.07 -3139.65 -3137.72 -3132.81 -3129.12 -3122.28 -3117.71 -3114.25 -3112.36 -3111.70 -3109.66 -3107.93 -3105.45 -3106.03 -3106.78 -3103.68 -3099.99 -3096.73 -3091.68 -3086.41 -3082.48 -3079.97 -3076.55 -3072.61 -3073.81 -3075.12 -3076.90 -3078.49 -3077.45 -3078.35 -3080.45 -3083.77 -3083.32 -3082.13 -3082.05 -3082.28 -3081.40 -3080.95 -3078.29
-2979.58 -2979.66 -2980.50 -2981.79 -2979.72 -2976.73 -2971.28 -2966.58 -2961.30 -2957.94 -2952.18 -2943.04 -2936.25 -2930.53 -2923.70 -2917.83 -2912.95 -2909.13 -2903.59 -2900.30 -2898.78 -2895.26 -2891.01 -2888.25 -2885.86 -2885.47 -2885.37 -2886.25 -2886.04 -2887.74 -2894.04 -2898.21 -2904.76 -2909.90 -2915.96 -2919.45 -2925.95 -2934.38 -2941.89 -2945.47 -2950.96 -2955.29 -2961.97 -2971.18 -2979.02 -2987.10 -2993.59 -3000.62 -3007.75 -3010.47 -3015.90 -3018.91 -3020.88 -3024.45 -3031.87 -3036.52 -3039.88 -3042.48 -3048.77 -3053.19 -3058.79 -3063.42 -3071.00 -3070.99 -3074.42 -3074.10 -3072.43 -3076.94 -3079.39 -3080.00 -3085.32 -3092.05 -3097.84 -3098.83 -3102.80 -3106.97 -3110.56 -3114.31 -3120.16 -3123.28 -3126.95 -3129.61 -3134.91 -3142.74 -3147.21 -3151.92 -3152.57 -3153.51 -3154.89 -3153.34 -3146.60 -3137.43 -3127.60 -3115.36 -3104.20 -3095.14 -3087.58 -3078.62 -3072.24 -3067.14 -3063.86 -3059.40 -3055.42 -3053.27 -3051.94 -3053.72 -3054.92 -3054.50 -3055.88 -3056.52 -3056.33 -3055.81 -3055.70 -3054.82 -3051.36 -3049.15 -3053.02 -3056.08 -3060.49 -3062.82 -3067.76 -3071.74 -3078.45 -3086.18 -3091.71 -3096.58 -3101.08 -3103.16 -3104.66 -3107.43 -3108.66 -3106.35 -3102.98 -3103.30 -3103.27 -3099.13 -3095.42 -3091.78 -3088.19 -3083.36 -3080.84 -3076.63 -3072.63 -3066.45 -3063.12 -3062.05 -3063.44 -3065.47 -3065.58 -3066.36 -3067.24 -3065.59 -3060.06 -3057.21 -3053.08 -3047.53 -3044.17 -3041.10 -3040.61 -3036.10 -3033.94 -3031.48 -3031.51 -3032.68 -3033.88 -3031.32 -3030.48 -3032.58 -3035.31 -3035.99 -3037.88 -3042.53 -3046.49 -3050.97 -3059.31 -3067.85 -3074.64 -3077.33 -3083.49 -3089.33 -3097.68 -3104.95 -3111.03 -3115.15 -3123.25 -3129.32 -3136.77 -3141.75 -3147.83 -3150.14 -3149.91 -3152.11 -3152.58 -3150.03 -3146.00 -3143.27 -3141.73 -3139.50 -3139.41 -3137.85 -3134.94 -3129.88 -3132.50 -3131.58 -3127.75 -3123.21 -3118.25 -3110.59 -3108.45 -3108.37 -3105.14 -3101.05 -3099.17 -3098.47 -3097.90 -3095.74 -3092.88 -3088.98 -3085.39 -3081.43 -3078.18 -3074.44 -3072.38 -3067.69 -3064.97 -3064.99 -3068.46 -3068.08 -3066.56 -3067.97 -3070.24 -3071.98 -3073.15 -3075.25 -3074.57 -3073.85 -3074.56 -3075.13 -3074.01 -3072.07
-2976.08 -2977.37 -2979.92 -2982.50 -2981.34 -2976.94 -2973.87 -2969.77 -2963.71 -2958.85 -2951.23 -2944.30 -2934.46 -2927.55 -2922.78 -2916.58 -2911.52 -2907.81 -2905.36 -2903.11 -2901.36 -2897.81 -2891.92 -2888.96 -2888.58 -2885.81 -2883.96 -2884.48 -2884.85 -2886.80 -2889.55 -2898.33 -2903.84 -2908.06 -2912.49 -2918.46 -2926.26 -2933.48 -2939.42 -2942.04 -2946.91 -2952.25 -2958.23 -2965.52 -2975.00 -2982.25 -2988.35 -2994.13 -3001.96 -3006.82 -3008.79 -3013.03 -3015.73 -3020.75 -3026.26 -3031.15 -3035.38 -3038.07 -3043.52 -3048.91 -3053.24 -3058.24 -3060.83 -3068.75 -3108.17 -3086.78 -3068.61 -3069.05 -3070.51 -3076.87 -3087.72 -3089.46 -3089.76 -3092.64 -3095.06 -3099.35 -3104.74 -3108.94 -3113.22 -3117.70 -3119.22 -3122.21 -3129.22 -3134.22 -3137.02 -3138.47 -3141.10 -3141.77 -3139.74 -3139.66 -3134.80 -3126.36 -3116.69 -3107.14 -3098.63 -3090.27 -3081.83 -3074.60 -3066.84 -3063.35 -3059.30 -3052.84 -3048.52 -3047.80 -3048.55 -3047.49 -3051.03 -3053.98 -3055.53 -3055.50 -3056.18 -3056.07 -3055.08 -3052.66 -3049.72 -3049.40 -3052.11 -3056.96 -3059.79 -3064.28 -3070.02 -3074.89 -3080.51 -3086.90 -3093.71 -3096.49 -3098.67 -3101.24 -3103.97 -3105.09 -3105.17 -3103.84 -3103.20 -3103.75 -3104.60 -3100.16 -3094.51 -3092.94 -3086.91 -3081.46 -3077.23 -3073.45 -3066.73 -3049.70 -3053.67 -3058.44 -3059.07 -3062.44 -3064.79 -3065.02 -3066.68 -3064.39 -3059.72 -3054.32 -3048.52 -3043.21 -3037.83 -3036.80 -3033.80 -3030.03 -3024.60 -3025.19 -3026.17 -3024.81 -3025.30 -3024.71 -3024.86 -3025.55 -3027.95 -3029.62 -3032.12 -3034.59 -3039.83 -3044.94 -3053.43 -3062.14 -3066.56 -3070.37 -3076.13 -3084.67 -3091.02 -3096.71 -3104.55 -3110.37 -3116.92 -3123.53 -3132.22 -3137.81 -3141.91 -3144.51 -3148.48 -3149.05 -3150.68 -3146.33 -3143.28 -3140.80 -3138.99 -3136.93 -3133.81 -3133.07 -3131.43 -3128.20 -3127.86 -3126.52 -3122.79 -3117.32 -3111.76 -3108.33 -3106.19 -3104.58 -3102.26 -3096.23 -3095.69 -3093.16 -3090.40 -3087.00 -3083.64 -3081.07 -3075.11 -3072.29 -3071.46 -3067.77 -3063.08 -3060.94 -3060.99 -3061.38 -3061.28 -3060.53 -3060.02 -3060.61 -3063.26 -3062.89 -3066.11 -3067.25 -3067.66 -3067.09 -3068.40 -3071.69 -3070.21 -3064.41
-2972.73 -2977.10 -2980.59 -2981.34 -2980.65 -2978.75 -2975.54 -2971.97 -2966.80 -2960.98 -2953.23 -2943.93 -2935.52 -2927.72 -2923.39 -2918.03 -2909.63 -2907.92 -2905.82 -2905.44 -2901.50 -2898.65 -2896.15 -2891.76 -2889.54 -2887.67 -2885.97 -2884.26 -2883.85 -2884.05 -2888.28 -2894.75 -2900.34 -2902.78 -2907.32 -2916.23 -2921.92 -2927.93 -2933.56 -2939.62 -2943.05 -2947.19 -2954.05 -2961.69 -2967.72 -2973.77 -2979.98 -2986.53 -2993.35 -2996.09 -2999.49 -3002.52 -3008.61 -3013.72 -3017.90 -3023.61 -3028.17 -3031.96 -3035.24 -3042.29 -3047.30 -3049.73 -3049.95 -3056.15 -3070.49 -3066.01 -3060.32 -3059.85 -3062.53 -3073.81 -3114.30 -3096.27 -3080.20 -3082.82 -3082.82 -3086.35 -3092.98 -3100.58 -3102.43 -3105.26 -3109.70 -3114.38 -3118.53 -3123.17 -3124.49 -3125.96 -3125.50 -3125.11 -3122.58 -3120.91 -3118.10 -3109.84 -3101.51 -3096.04 -3090.16 -3081.64 -3073.22 -3069.35 -3063.87 -3056.86 -3052.24 -3047.55 -3042.13 -3040.90 -3041.34 -3043.53 -3046.25 -3048.77 -3051.06 -3052.01 -3055.33 -3056.30 -3053.67 -3049.65 -3048.13 -3049.83 -3051.92 -3055.84 -3061.59 -3064.80 -3069.35 -3075.80 -3082.02 -3088.56 -3091.73 -3095.37 -3096.07 -3099.33 -3101.31 -3100.02 -3100.14 -3099.55 -3100.04 -3098.77 -3099.71 -3097.70 -3092.68 -3087.10 -3084.32 -3078.16 -3072.60 -3065.97 -3059.45 -3052.07 -3049.53 -3052.62 -3051.45 -3054.08 -3057.84 -3058.39 -3059.45 -3057.81 -3054.24 -3049.15 -3042.43 -3037.52 -3034.41 -3029.01 -3024.81 -3020.10 -3016.10 -3016.08 -3015.23 -3015.56 -3012.78 -3013.61 -3013.77 -3015.29 -3018.38 -3021.98 -3022.35 -3025.00 -3030.17 -3038.31 -3043.65 -3049.37 -3056.74 -3059.82 -3065.76 -3072.37 -3080.63 -3088.00 -3094.34 -3101.83 -3108.42 -3115.75 -3124.09 -3129.08 -3132.34 -3137.39 -3141.83 -3142.44 -3140.71 -3140.67 -3138.46 -3135.63 -3134.45 -3132.05 -3131.10 -3127.04 -3124.45 -3121.96 -3120.00 -3118.26 -3112.97 -3107.43 -3104.60 -3102.89 -3100.30 -3098.61 -3095.37 -3093.82 -3087.82 -3085.63 -3083.46 -3078.38 -3071.63 -3066.77 -3063.82 -3059.36 -3058.32 -3055.30 -3050.88 -3050.29 -3051.98 -3052.11 -3052.39 -3053.16 -3052.50 -3050.96 -3051.53 -3055.00 -3056.13 -3056.24 -3057.50 -3059.23 -3061.67 -3062.49 -3062.45 -3058.07
-2971.31 -2977.03 -2979.81 -2981.61 -2981.13 -2981.77 -2978.02 -2972.99 -2968.60 -2963.92 -2953.73 -2944.63 -2937.79 -2931.08 -2923.46 -2916.09 -2911.55 -2909.15 -2907.89 -2906.16 -2902.64 -2899.72 -2896.20 -2893.53 -2890.23 -2889.57 -2887.71 -2884.33 -2882.06 -2885.36 -2888.78 -2892.24 -2894.70 -2898.73 -2903.18 -2908.36 -2915.73 -2921.31 -2926.45 -2931.68 -2936.00 -2941.61 -2948.99 -2956.05 -2960.41 -2964.62 -2972.09 -2978.28 -2981.61 -2984.47 -2987.16 -2992.02 -2996.25 -3003.36 -3010.10 -3014.32 -3019.69 -3022.89 -3026.88 -3033.17 -3037.31 -3038.75 -3039.56 -3042.74 -3045.26 -3046.21 -3048.99 -3070.86 -3060.38 -3064.56 -3113.80 -3106.74 -3072.84 -3070.78 -3086.08 -3089.98 -3085.83 -3085.46 -3088.36 -3091.60 -3097.77 -3102.79 -3105.70 -3108.98 -3112.21 -3110.53 -3108.66 -3108.56 -3106.42 -3102.96 -3095.71 -3092.05 -3086.55 -3082.32 -3077.46 -3070.86 -3064.89 -3061.55 -3056.63 -3051.42 -3046.09 -3041.42 -3036.83 -3033.53 -3036.00 -3039.08 -3040.21 -3041.93 -3044.58 -3049.13 -3050.10 -3052.82 -3050.70 -3049.12 -3048.11 -3049.99 -3052.76 -3057.25 -3061.34 -3066.12 -3069.98 -3075.94 -3082.87 -3085.87 -3087.83 -3090.70 -3093.50 -3094.16 -3093.20 -3094.87 -3092.86 -3092.45 -3091.90 -3092.82 -3092.32 -3090.21 -3084.70 -3080.25 -3076.42 -3073.26 -3065.20 -3057.78 -3052.52 -3048.76 -3045.41 -3044.66 -3045.86 -3046.14 -3045.68 -3048.41 -3048.51 -3048.80 -3044.86 -3041.04 -3034.86 -3031.23 -3026.79 -3022.38 -3015.73 -3011.78 -3007.35 -3003.58 -3002.76 -3001.15 -3000.93 -2998.30 -2999.09 -3003.58 -3006.19 -3009.17 -3010.37 -3014.72 -3020.08 -3027.40 -3031.64 -3036.67 -3042.19 -3046.34 -3049.49 -3057.89 -3066.51 -3073.67 -3080.43 -3088.64 -3098.89 -3105.57 -3111.50 -3117.50 -3121.62 -3127.06 -3130.35 -3132.21 -3130.96 -3130.30 -3128.56 -3128.45 -3127.26 -3128.18 -3124.94 -3120.34 -3116.67 -3115.50 -3112.83 -3106.74 -3102.79 -3094.36 -3089.81 -3091.45 -3091.59 -3090.36 -3088.47 -3085.74 -3081.62 -3077.80 -3073.82 -3067.84 -3058.60 -3054.83 -3049.99 -3046.81 -3040.37 -3038.26 -3038.03 -3036.50 -3038.09 -3040.96 -3041.88 -3041.26 -3040.45 -3041.25 -3042.05 -3044.04 -3045.33 -3044.04 -3045.45 -3050.84 -3052.21 -3053.34 -3051.73 -3050.26
-2972.12 -2975.83 -2982.50 -2984.93 -2984.97 -2982.52 -2981.04 -2976.94 -2970.28 -2964.07 -2955.59 -2946.67 -2940.00 -2933.44 -2925.32 -2918.56 -2913.83 -2911.85 -2908.45 -2906.70 -2904.54 -2898.88 -2895.27 -2892.83 -2892.19 -2889.34 -2887.72 -2885.47 -2884.63 -2885.81 -2888.42 -2890.07 -2892.34 -2895.40 -2897.85 -2901.24 -2906.81 -2914.18 -2917.19 -2921.91 -2929.67 -2935.99 -2943.17 -2947.68 -2954.13 -2959.47 -2964.53 -2969.38 -2972.67 -2973.01 -2976.00 -2979.69 -2985.48 -2992.62 -2999.93 -3004.36 -3007.37 -3014.63 -3020.14 -3023.98 -3026.41 -3029.48 -3031.55 -3031.99 -3036.11 -3037.47 -3039.88 -3126.27 -3073.13 -3044.76 -3070.84 -3129.84 -3079.39 -3059.55 -3125.48 -3132.24 -3091.61 -3070.70 -3075.71 -3080.48 -3084.16 -3089.00 -3094.51 -3097.12 -3097.71 -3098.18 -3096.31 -3094.95 -3091.44 -3085.65 -3081.21 -3076.44 -3074.25 -3068.89 -3063.67 -3060.69 -3055.49 -3052.25 -3049.40 -3046.76 -3040.72 -3034.63 -3031.28 -3030.60 -3032.59 -3034.66 -3034.82 -3036.79 -3042.33 -3044.44 -3046.19 -3049.34 -3048.79 -3046.27 -3044.39 -3049.37 -3054.22 -3059.05 -3061.52 -3066.07 -3070.87 -3075.30 -3078.61 -3081.78 -3082.72 -3084.83 -3086.06 -3086.01 -3086.46 -3086.28 -3086.21 -3082.50 -3082.76 -3083.66 -3081.88 -3077.77 -3073.91 -3071.78 -3066.76 -3061.33 -3054.82 -3049.15 -3043.62 -3041.62 -3038.72 -3039.74 -3038.86 -3038.29 -3037.28 -3037.37 -3039.94 -3037.43 -3032.54 -3030.03 -3027.22 -3022.90 -3017.92 -3014.97 -3009.06 -3002.56 -2996.62 -2995.31 -2991.26 -2989.57 -2985.05 -2983.74 -2985.03 -2989.37 -2993.13 -2994.28 -2999.46 -3004.17 -3009.72 -3014.74 -3020.51 -3024.85 -3028.31 -3030.16 -3036.92 -3043.02 -3049.70 -3058.39 -3065.33 -3075.79 -3085.91 -3092.85 -3098.44 -3105.85 -3112.77 -3116.29 -3119.82 -3121.98 -3121.52 -3119.28 -3118.89 -3120.17 -3121.34 -3119.24 -3117.42 -3114.76 -3110.48 -3108.70 -3103.99 -3098.82 -3092.24 -3074.47 -3070.33 -3077.67 -3084.19 -3083.01 -3078.84 -3075.58 -3074.33 -3070.44 -3064.08 -3056.03 -3049.08 -3042.04 -3037.33 -3032.31 -3027.47 -3023.77 -3020.63 -3021.95 -3023.04 -3026.53 -3028.44 -3027.02 -3026.66 -3030.13 -3033.03 -3033.68 -3034.59 -3036.24 -3038.21 -3039.34 -3043.48 -3044.12 -3042.71 -3039.31
-2971.48 -2977.85 -2983.30 -2987.96 -2987.87 -2986.59 -2985.34 -2980.38 -2972.41 -2963.48 -2958.10 -2949.38 -2940.98 -2933.99 -2928.25 -2920.76 -2916.00 -2913.93 -2912.15 -2908.93 -2904.81 -2899.07 -2894.43 -2893.45 -2891.72 -2888.95 -2886.82 -2885.23 -2886.79 -2886.09 -2888.32 -2890.14 -2890.90 -2889.85 -2892.26 -2895.83 -2901.19 -2903.58 -2907.84 -2912.80 -2920.90 -2928.84 -2934.15 -2940.56 -2946.92 -2951.54 -2956.22 -2959.35 -2964.30 -2963.09 -2963.52 -2969.13 -2975.17 -2981.22 -2987.23 -2991.66 -2998.26 -3002.74 -3009.56 -3013.88 -3016.42 -3019.68 -3021.40 -3023.82 -3026.90 -3029.21 -3030.68 -3040.10 -3038.41 -3038.16 -3042.54 -3050.60 -3048.84 -3047.51 -3057.45 -3061.29 -3061.03 -3059.72 -3064.52 -3067.78 -3072.29 -3077.86 -3082.72 -3085.03 -3083.81 -3084.44 -3084.96 -3082.42 -3077.02 -3074.54 -3069.33 -3064.91 -3061.22 -3058.31 -3054.73 -3048.94 -3046.72 -3042.41 -3041.27 -3038.85 -3034.41 -3028.94 -3027.87 -3029.11 -3029.38 -3030.33 -3032.04 -3034.73 -3035.22 -3037.84 -3041.10 -3048.03 -3043.55 -3042.00 -3045.00 -3048.16 -3054.65 -3057.30 -3060.98 -3065.87 -3070.81 -3072.97 -3074.18 -3075.59 -3076.41 -3074.84 -3075.30 -3076.56 -3074.33 -3073.45 -3070.67 -3070.79 -3069.69 -3069.17 -3067.20 -3061.78 -3058.84 -3055.22 -3052.01 -3045.55 -3040.77 -3036.44 -3031.84 -3030.04 -3031.85 -3031.73 -3029.91 -3028.24 -3028.13 -3028.53 -3026.60 -3024.74 -3020.24 -3017.38 -3015.37 -3011.18 -3007.98 -3003.83 -2999.32 -2992.63 -2986.90 -2985.73 -2981.55 -2975.03 -2972.91 -2972.09 -2972.15 -2974.83 -2978.07 -2982.43 -2984.64 -2991.84 -2997.78 -3002.46 -3007.76 -3011.16 -3013.55 -3015.65 -3022.04 -3028.39 -3032.77 -3040.28 -3050.60 -3059.58 -3069.65 -3076.59 -3085.22 -3091.05 -3097.13 -3104.16 -3108.49 -3110.23 -3109.94 -3108.60 -3109.04 -3112.30 -3112.23 -3111.46 -3109.03 -3107.99 -3104.21 -3100.55 -3097.36 -3091.50 -3085.58 -3078.05 -3075.72 -3075.77 -3073.27 -3073.40 -3070.09 -3066.91 -3063.83 -3059.47 -3051.12 -3043.79 -3036.85 -3031.37 -3023.81 -3019.86 -3014.85 -3008.26 -3005.65 -3006.63 -3008.97 -3008.59 -3009.82 -3010.54 -3011.96 -3016.80 -3019.34 -3022.24 -3023.67 -3026.69 -3029.32 -3031.76 -3034.61 -3036.22 -3031.96 -3027.60
-2972.14 -2980.15 -2986.76 -2988.53 -2991.33 -2991.42 -2988.82 -2984.69 -2976.14 -2968.82 -2959.20 -2951.64 -2943.34 -2936.02 -2930.33 -2922.53 -2916.05 -2916.25 -2915.02 -2909.63 -2904.19 -2899.19 -2896.62 -2891.80 -2890.64 -2888.93 -2886.67 -2885.70 -2885.45 -2886.63 -2886.94 -2887.41 -2886.99 -2885.16 -2887.67 -2890.52 -2892.24 -2893.91 -2898.72 -2904.61 -2911.50 -2917.13 -2924.92 -2929.64 -2935.19 -2940.01 -2946.46 -2950.79 -2952.95 -2952.97 -2954.65 -2959.67 -2966.42 -2970.15 -2974.97 -2980.18 -2985.94 -2990.38 -2995.51 -3002.21 -3005.59 -3005.93 -3010.79 -3014.56 -3019.22 -3018.84 -3020.99 -3021.75 -3024.41 -3028.20 -3029.80 -3030.81 -3033.24 -3034.42 -3036.19 -3040.11 -3046.08 -3050.09 -3052.35 -3057.01 -3064.33 -3066.29 -3069.87 -3070.97 -3071.83 -3072.03 -3071.71 -3069.92 -3065.84 -3062.29 -3059.74 -3055.30 -3053.05 -3051.23 -3045.84 -3040.26 -3035.43 -3035.94 -3032.44 -3028.83 -3025.91 -3024.05 -3023.59 -3024.66 -3027.98 -3028.29 -3029.72 -3030.73 -3031.95 -3034.13 -3037.61 -3039.10 -3037.68 -3037.38 -3042.74 -3047.59 -3050.16 -3056.56 -3060.85 -3063.46 -3066.79 -3069.67 -3071.29 -3068.55 -3067.77 -3065.87 -3064.97 -3062.61 -3059.95 -3055.91 -3054.79 -3054.03 -3052.64 -3049.50 -3046.64 -3043.58 -3037.92 -3034.56 -3032.83 -3027.88 -3023.03 -3018.94 -3018.51 -3018.11 -3019.18 -3018.61 -3018.05 -3016.97 -3018.60 -3016.91 -3014.49 -3010.64 -3007.94 -3004.04 -3000.92 -3000.31 -2995.62 -2990.26 -2983.78 -2979.99 -2976.25 -2972.99 -2968.52 -2963.08 -2959.67 -2958.56 -2959.47 -2960.82 -2965.10 -2967.50 -2970.93 -2974.60 -2982.21 -2987.47 -2989.49 -2993.05 -2997.70 -3001.18 -3004.29 -3009.66 -3016.94 -3022.98 -3032.34 -3042.00 -3051.26 -3058.36 -3067.24 -3073.17 -3082.00 -3089.14 -3097.13 -3096.67 -3097.92 -3099.76 -3100.90 -3101.45 -3096.60 -3102.03 -3102.60 -3099.54 -3097.86 -3094.25 -3089.57 -3084.20 -3076.74 -3072.19 -3070.81 -3067.34 -3065.88 -3063.25 -3063.37 -3057.61 -3052.21 -3045.71 -3039.12 -3029.06 -3020.21 -3016.49 -3011.00 -3004.65 -2997.99 -2993.11 -2989.47 -2991.01 -2991.64 -2990.79 -2990.02 -2991.80 -2995.75 -2997.57 -3003.63 -3008.12 -3011.58 -3013.97 -3019.27 -3023.97 -3025.31 -3024.79 -3023.74 -3018.96
-2973.24 -2981.24 -2986.48 -2991.27 -2993.65 -2995.40 -2992.44 -2986.11 -2981.22 -2972.85 -2963.87 -2955.86 -2948.27 -2939.82 -2930.02 -2924.39 -2918.93 -2918.35 -2914.75 -2908.98 -2903.63 -2899.33 -2895.17 -2892.98 -2890.36 -2888.78 -2886.45 -2882.87 -2884.69 -2885.68 -2885.10 -2881.99 -2881.49 -2882.17 -2881.69 -2883.75 -2885.51 -2887.16 -2889.57 -2896.14 -2902.16 -2908.60 -2913.62 -2920.01 -2922.56 -2928.75 -2936.36 -2939.59 -2942.18 -2942.78 -2948.32 -2951.60 -2956.39 -2961.35 -2966.04 -2968.86 -2974.59 -2979.22 -2983.66 -2987.43 -2991.27 -2994.80 -2999.22 -3006.59 -3008.66 -3009.61 -3011.97 -3015.00 -3017.54 -3018.06 -3020.63 -3020.89 -3020.40 -3021.23 -3024.54 -3029.38 -3033.39 -3036.83 -3041.72 -3047.21 -3053.92 -3057.41 -3057.96 -3060.96 -3060.66 -3060.79 -3059.39 -3058.62 -3056.21 -3051.45 -3049.31 -3047.88 -3046.75 -3042.60 -3038.59 -3033.55 -3030.27 -3027.73 -3024.75 -3020.96 -3019.36 -3019.12 -3018.16 -3021.19 -3024.51 -3027.57 -3026.86 -3027.94 -3032.75 -3033.19 -3033.76 -3034.09 -3035.19 -3036.38 -3039.97 -3043.90 -3048.78 -3052.17 -3057.16 -3060.09 -3063.40 -3066.17 -3065.96 -3062.37 -3058.57 -3058.38 -3055.21 -3048.89 -3043.54 -3040.79 -3036.09 -3032.56 -3030.83 -3026.65 -3023.47 -3018.20 -3015.91 -3012.79 -3012.21 -3009.12 -3004.23 -3002.34 -3002.95 -3004.22 -3003.32 -3003.81 -3005.91 -3004.07 -3002.95 -3003.35 -3000.98 -2996.88 -2993.02 -2990.92 -2989.73 -2986.02 -2982.52 -2975.65 -2970.51 -2967.31 -2962.93 -2958.67 -2953.45 -2950.32 -2946.86 -2945.59 -2947.81 -2949.45 -2950.00 -2952.11 -2955.64 -2961.29 -2965.92 -2968.55 -2972.23 -2973.66 -2980.06 -2982.48 -2986.87 -2992.59 -2999.90 -3006.89 -3014.96 -3026.17 -3037.15 -3040.43 -3047.73 -3057.59 -3065.76 -3074.71 -3080.65 -3084.92 -3087.60 -3089.33 -3093.64 -3095.51 -3097.04 -3098.48 -3097.00 -3093.49 -3091.94 -3089.32 -3084.03 -3076.82 -3073.07 -3068.25 -3064.96 -3063.66 -3061.85 -3059.45 -3055.40 -3050.26 -3042.56 -3033.45 -3023.90 -3012.29 -3003.28 -3000.27 -2994.94 -2986.44 -2980.56 -2976.63 -2975.44 -2973.28 -2973.95 -2972.98 -2971.27 -2972.43 -2975.60 -2981.99 -2985.53 -2991.27 -2995.52 -3000.38 -3008.49 -3013.33 -3015.63 -3014.35 -3014.23 -3009.78
-2974.61 -2981.25 -2987.64 -2991.99 -2993.35 -2994.75 -2993.86 -2990.08 -2981.03 -2975.69 -2968.53 -2961.10 -2953.33 -2944.28 -2934.46 -2926.84 -2922.22 -2919.04 -2912.75 -2908.82 -2902.93 -2896.62 -2893.69 -2892.72 -2890.03 -2887.71 -2885.03 -2884.47 -2882.60 -2883.25 -2880.15 -2877.53 -2875.23 -2875.52 -2875.85 -2875.09 -2878.09 -2880.23 -2882.16 -2888.29 -2895.94 -2900.11 -2902.43 -2907.74 -2913.34 -2918.74 -2923.69 -2929.10 -2931.14 -2934.00 -2937.29 -2944.48 -2948.35 -2953.61 -2957.35 -2959.25 -2964.36 -2969.51 -2972.38 -2974.42 -2977.48 -2982.77 -2988.25 -2993.13 -2999.25 -3002.54 -3003.96 -3008.15 -3009.99 -3012.61 -3011.92 -3012.47 -3011.28 -3010.61 -3015.12 -3018.17 -3020.20 -3025.15 -3032.23 -3037.80 -3043.08 -3046.49 -3050.19 -3050.47 -3051.69 -3052.47 -3051.85 -3050.39 -3045.64 -3044.05 -3041.47 -3042.15 -3040.27 -3034.92 -3031.58 -3028.67 -3024.17 -3022.13 -3019.03 -3017.42 -3014.57 -3013.24 -3016.69 -3019.38 -3021.91 -3024.15 -3024.68 -3027.57 -3030.50 -3033.34 -3032.89 -3033.54 -3035.90 -3036.98 -3038.58 -3044.19 -3047.41 -3049.52 -3052.44 -3056.75 -3059.55 -3058.72 -3058.19 -3054.94 -3052.21 -3048.74 -3043.23 -3036.30 -3027.59 -3024.40 -3018.10 -3011.44 -3006.79 -3001.79 -2995.02 -2991.09 -2990.66 -2990.57 -2988.80 -2986.85 -2986.71 -2986.56 -2988.34 -2989.24 -2989.40 -2988.91 -2989.07 -2988.00 -2987.62 -2987.79 -2986.44 -2981.37 -2977.60 -2978.59 -2977.34 -2973.69 -2967.31 -2964.08 -2958.34 -2952.95 -2949.33 -2945.38 -2941.31 -2936.02 -2934.47 -2933.64 -2935.43 -2937.09 -2936.71 -2938.02 -2942.64 -2946.07 -2948.08 -2950.22 -2952.98 -2956.61 -2959.18 -2964.56 -2969.38 -2975.13 -2982.42 -2990.12 -3001.73 -3010.82 -3020.91 -3024.78 -3031.39 -3041.67 -3051.97 -3059.09 -3067.35 -3073.22 -3077.98 -3081.13 -3086.71 -3092.98 -3093.18 -3093.54 -3093.03 -3091.62 -3089.51 -3084.64 -3079.91 -3073.83 -3070.19 -3067.10 -3063.92 -3060.90 -3057.70 -3054.72 -3050.25 -3042.86 -3034.97 -3022.12 -3007.31 -2997.43 -2987.60 -2982.39 -2975.38 -2969.11 -2963.35 -2958.54 -2958.01 -2956.00 -2955.29 -2954.45 -2953.73 -2953.63 -2958.35 -2963.41 -2969.20 -2972.47 -2980.27 -2986.90 -2993.14 -2998.16 -3001.13 -3002.93 -3000.47 -2997.80
-2979.37 -2984.30 -2989.85 -2993.73 -2994.69 -2995.34 -2994.73 -2989.04 -2981.56 -2976.95 -2972.99 -2966.11 -2955.66 -2948.69 -2939.94 -2931.77 -2923.55 -2921.23 -2914.71 -2906.28 -2900.19 -2894.68 -2892.03 -2890.58 -2888.16 -2885.32 -2883.93 -2884.21 -2883.44 -2879.94 -2877.54 -2874.92 -2870.50 -2870.20 -2869.48 -2871.26 -2870.50 -2872.58 -2876.53 -2882.79 -2889.20 -2892.83 -2895.56 -2900.08 -2906.14 -2910.96 -2914.00 -2918.80 -2925.00 -2925.80 -2930.44 -2938.00 -2943.43 -2947.44 -2949.55 -2955.71 -2959.30 -2962.20 -2963.61 -2966.02 -2968.58 -2973.96 -2979.23 -2985.84 -2990.21 -2994.62 -2997.79 -3001.31 -3006.20 -3007.53 -3005.90 -3005.19 -3006.39 -3006.73 -3007.45 -3011.31 -3013.45 -3017.70 -3022.36 -3029.86 -3035.28 -3039.15 -3041.67 -3043.68 -3044.35 -3047.12 -3047.80 -3044.67 -3041.81 -3040.80 -3040.41 -3037.69 -3034.48 -3032.40 -3027.21 -3023.46 -3020.67 -3018.52 -3015.36 -3013.87 -3011.53 -3012.46 -3015.55 -3019.61 -3019.26 -3021.74 -3024.81 -3027.73 -3029.23 -3030.69 -3033.17 -3036.87 -3036.28 -3039.04 -3042.68 -3045.20 -3046.81 -3048.21 -3050.61 -3054.57 -3054.59 -3054.52 -3050.65 -3049.99 -3045.05 -3040.86 -3036.07 -3029.20 -3019.80 -3011.78 -3006.48 -2999.47 -2989.60 -2980.32 -2973.34 -2970.20 -2970.30 -2970.54 -2970.15 -2971.54 -2972.49 -2976.27 -2976.48 -2979.63 -2980.22 -2978.81 -2977.22 -2977.25 -2978.12 -2974.76 -2971.92 -2969.42 -2967.10 -2967.02 -2966.18 -2963.64 -2958.36 -2953.84 -2949.01 -2944.83 -2939.12 -2936.74 -2929.36 -2925.28 -2924.64 -2926.10 -2925.10 -2925.03 -2927.05 -2928.53 -2930.95 -2934.27 -2936.81 -2937.34 -2938.95 -2940.56 -2945.71 -2950.01 -2955.45 -2961.72 -2966.91 -2979.30 -2989.60 -2999.97 -3007.90 -3013.76 -3021.47 -3030.11 -3041.22 -3051.40 -3058.90 -3064.53 -3069.76 -3075.09 -3082.38 -3086.52 -3089.17 -3089.22 -3090.41 -3091.26 -3086.88 -3083.70 -3079.11 -3075.00 -3069.83 -3066.52 -3065.29 -3059.41 -3049.86 -3051.28 -3048.67 -3039.35 -3026.50 -3010.83 -2996.57 -2984.87 -2976.72 -2970.24 -2961.95 -2955.63 -2949.25 -2945.38 -2943.05 -2944.28 -2941.10 -2938.89 -2938.94 -2942.38 -2945.96 -2951.11 -2956.05 -2961.30 -2968.74 -2975.48 -2982.26 -2986.31 -2990.83 -2992.03 -2990.59 -2988.04
-2984.32 -2990.89 -2992.53 -2996.48 -2999.54 -2998.91 -2995.67 -2989.36 -2983.44 -2978.68 -2973.66 -2968.32 -2960.97 -2951.93 -2944.31 -2935.62 -2927.79 -2923.51 -2915.57 -2905.81 -2897.19 -2894.52 -2889.93 -2886.36 -2883.27 -2883.11 -2881.16 -2880.27 -2878.38 -2876.42 -2871.03 -2868.18 -2865.73 -2863.48 -2863.73 -2862.36 -2861.64 -2863.62 -2868.62 -2875.14 -2877.36 -2881.77 -2885.48 -2889.57 -2894.29 -2900.55 -2905.87 -2909.27 -2912.63 -2916.57 -2921.39 -2928.39 -2933.96 -2936.76 -2941.93 -2946.51 -2951.79 -2952.19 -2954.08 -2958.17 -2959.29 -2963.39 -2970.60 -2977.08 -2980.68 -2983.96 -2988.12 -2993.55 -2996.38 -2999.04 -2997.98 -2997.89 -3000.25 -2999.69 -3001.51 -3003.05 -3006.22 -3008.74 -3013.08 -3020.02 -3025.29 -3027.27 -3029.14 -3033.69 -3037.97 -3039.43 -3039.67 -3040.05 -3037.32 -3037.99 -3036.94 -3034.63 -3031.47 -3027.22 -3021.57 -3016.51 -3015.77 -3014.91 -3010.23 -3008.02 -3009.84 -3011.82 -3014.20 -3016.93 -3020.12 -3021.01 -3022.37 -3025.96 -3027.33 -3029.97 -3030.82 -3046.77 -3040.15 -3040.05 -3048.49 -3046.94 -3046.41 -3049.31 -3049.80 -3049.32 -3048.47 -3047.69 -3043.99 -3039.50 -3034.84 -3030.68 -3022.63 -3014.96 -3002.43 -2996.67 -2987.25 -2976.89 -2963.23 -2949.80 -2944.00 -2941.73 -2940.61 -2942.29 -2944.40 -2946.39 -2949.22 -2954.69 -2960.48 -2961.99 -2962.70 -2963.10 -2961.68 -2962.39 -2960.68 -2959.07 -2954.39 -2953.41 -2951.51 -2950.35 -2949.55 -2949.00 -2943.69 -2938.02 -2934.07 -2931.57 -2926.51 -2920.44 -2916.52 -2912.28 -2910.38 -2910.90 -2909.77 -2910.11 -2909.76 -2912.60 -2912.82 -2915.72 -2917.68 -2917.91 -2917.70 -2921.52 -2926.24 -2929.66 -2932.51 -2939.31 -2947.95 -2957.49 -2969.90 -2979.78 -2989.63 -2995.74 -3004.61 -3017.14 -3029.16 -3042.44 -3049.76 -3055.20 -3062.12 -3069.39 -3073.80 -3077.08 -3079.44 -3082.60 -3083.35 -3083.91 -3084.42 -3081.45 -3078.44 -3074.63 -3071.69 -3070.08 -3066.13 -3060.71 -3051.60 -3049.72 -3044.71 -3030.90 -3011.59 -2995.75 -2979.22 -2965.68 -2953.60 -2950.18 -2941.99 -2932.55 -2927.47 -2923.68 -2921.59 -2919.63 -2917.48 -2915.95 -2917.39 -2921.68 -2925.05 -2930.77 -2937.55 -2944.87 -2949.97 -2957.90 -2965.05 -2970.40 -2970.01 -2973.10 -2975.03 -2972.47
-2988.40 -2992.20 -2997.80 -3000.56 -3003.16 -3001.73 -2996.70 -2991.66 -2985.59 -2981.30 -2975.65 -2970.93 -2963.55 -2953.40 -2944.77 -2939.06 -2931.33 -2925.01 -2916.48 -2906.32 -2899.55 -2892.00 -2888.26 -2882.39 -2879.01 -2877.33 -2874.94 -2873.18 -2871.67 -2869.33 -2864.54 -2860.31 -2859.30 -2858.66 -2855.49 -2855.26 -2854.67 -2857.04 -2859.74 -2863.51 -2868.99 -2870.18 -2874.89 -2878.63 -2883.36 -2889.42 -2894.99 -2898.25 -2902.73 -2908.20 -2914.24 -2918.14 -2922.49 -2928.20 -2931.90 -2936.20 -2941.56 -2943.94 -2945.89 -2947.97 -2952.60 -2956.53 -2964.41 -2969.00 -2972.23 -2974.82 -2980.08 -2985.06 -2986.25 -2987.33 -2989.51 -2989.61 -2990.90 -2993.39 -2996.21 -2998.46 -2998.51 -3002.71 -3007.84 -3012.56 -3017.10 -3017.57 -3020.00 -3024.12 -3029.05 -3031.04 -3032.85 -3034.76 -3034.83 -3033.18 -3034.51 -3034.11 -3028.69 -3023.38 -3018.37 -3015.76 -3012.18 -3009.91 -3006.51 -3005.67 -3007.60 -3010.73 -3013.56 -3015.96 -3018.74 -3020.47 -3022.09 -3024.71 -3028.88 -3027.52 -3027.96 -3032.64 -3037.09 -3039.70 -3042.59 -3044.90 -3046.92 -3046.85 -3046.52 -3045.03 -3042.39 -3039.46 -3034.92 -3028.51 -3023.47 -3018.22 -3009.58 -2996.17 -2986.08 -2978.27 -2966.70 -2950.62 -2936.46 -2922.13 -2911.93 -2911.98 -2913.17 -2914.87 -2917.80 -2920.95 -2926.14 -2932.42 -2938.55 -2942.20 -2942.10 -2944.15 -2946.79 -2943.94 -2944.13 -2942.14 -2939.22 -2935.75 -2933.73 -2934.55 -2932.55 -2929.80 -2924.78 -2921.30 -2917.79 -2916.24 -2910.17 -2904.96 -2901.06 -2899.66 -2896.61 -2894.98 -2895.22 -2893.27 -2892.45 -2892.62 -2896.11 -2895.55 -2894.91 -2895.05 -2895.70 -2899.30 -2903.16 -2905.61 -2908.79 -2915.93 -2924.77 -2933.99 -2944.96 -2958.15 -2967.54 -2972.81 -2985.59 -3002.15 -3017.53 -3029.51 -3041.07 -3048.40 -3054.11 -3059.11 -3062.67 -3064.84 -3067.23 -3070.70 -3073.03 -3075.11 -3076.30 -3076.13 -3072.56 -3073.06 -3073.27 -3070.54 -3065.53 -3059.01 -3051.57 -3045.99 -3034.98 -3018.21 -2996.03 -2973.42 -2955.41 -2939.85 -2929.35 -2924.38 -2915.75 -2906.71 -2900.98 -2899.61 -2895.71 -2892.38 -2890.78 -2890.51 -2891.26 -2894.40 -2901.28 -2907.93 -2914.14 -2921.26 -2929.34 -2936.59 -2943.72 -2947.84 -2949.00 -2951.05 -2953.87 -2952.50
-2990.87 -2996.12 -3001.79 -3005.39 -3005.64 -3004.92 -3003.22 -2994.35 -2988.36 -2984.22 -2980.90 -2972.95 -2964.17 -2955.54 -2946.77 -2940.00 -2931.52 -2923.58 -2915.40 -2908.12 -2899.51 -2892.50 -2886.00 -2882.04 -2875.71 -2870.45 -2870.65 -2866.95 -2863.70 -2857.77 -2854.43 -2851.92 -2851.06 -2849.70 -2848.28 -2846.21 -2848.18 -2849.36 -2851.94 -2856.20 -2858.73 -2859.55 -2859.55 -2866.83 -2872.95 -2877.64 -2882.54 -2887.55 -2894.48 -2898.57 -2904.96 -2909.99 -2915.29 -2919.07 -2923.90 -2927.15 -2932.43 -2935.41 -2936.76 -2939.63 -2945.65 -2952.81 -2956.27 -2960.60 -2966.02 -2968.87 -2972.32 -2974.71 -2978.05 -2977.51 -2978.75 -2980.24 -2983.97 -2985.41 -2990.22 -2990.86 -2993.91 -2998.90 -3004.51 -3007.52 -3008.26 -3011.05 -3012.47 -3015.95 -3019.82 -3024.47 -3026.16 -3026.87 -3029.66 -3032.31 -3033.50 -3032.38 -3027.92 -3020.93 -3018.26 -3017.69 -3028.23 -3011.78 -3005.25 -3005.29 -3004.18 -3008.47 -3012.86 -3014.93 -3015.95 -3018.84 -3021.47 -3024.65 -3026.65 -3028.16 -3028.02 -3031.61 -3037.07 -3037.27 -3040.65 -3042.65 -3048.70 -3043.43 -3040.91 -3041.09 -3035.52 -3030.87 -3025.79 -3021.61 -3014.41 -3005.97 -2994.72 -2982.47 -2967.75 -2959.36 -2943.51 -2923.80 -2906.51 -2888.82 -2880.60 -2882.34 -2889.14 -2889.72 -2891.13 -2897.15 -2905.06 -2910.43 -2915.68 -2919.59 -2921.83 -2922.86 -2925.01 -2926.60 -2925.95 -2925.19 -2921.94 -2918.63 -2917.64 -2918.00 -2915.34 -2908.58 -2905.77 -2903.84 -2899.64 -2895.04 -2892.37 -2889.47 -2885.95 -2882.92 -2882.74 -2880.51 -2878.29 -2875.93 -2873.02 -2874.06 -2874.67 -2872.60 -2869.57 -2868.45 -2871.63 -2872.66 -2876.03 -2879.75 -2883.56 -2888.80 -2897.39 -2908.23 -2919.02 -2928.85 -2940.52 -2948.81 -2963.15 -2983.19 -3000.14 -3018.62 -3033.29 -3039.94 -3043.11 -3045.97 -3050.79 -3052.16 -3052.05 -3055.47 -3060.26 -3062.74 -3064.19 -3065.01 -3067.42 -3068.25 -3069.83 -3070.24 -3065.02 -3058.72 -3048.53 -3042.11 -3028.07 -3005.88 -2978.08 -2947.36 -2924.47 -2909.27 -2896.73 -2889.87 -2881.64 -2875.01 -2871.28 -2866.15 -2864.66 -2862.41 -2860.81 -2860.50 -2861.95 -2866.88 -2872.96 -2880.89 -2886.05 -2894.31 -2905.64 -2912.56 -2916.54 -2921.22 -2925.17 -2927.57 -2928.19 -2927.74
-2995.20 -3000.07 -3004.00 -3007.92 -3008.91 -3008.32 -3004.18 -2999.18 -2991.89 -2990.19 -2985.31 -2975.26 -2964.64 -2956.42 -2948.51 -2938.12 -2929.16 -2923.55 -2914.40 -2904.51 -2898.69 -2891.85 -2885.93 -2879.23 -2872.22 -2868.01 -2864.27 -2861.38 -2854.57 -2849.01 -2845.24 -2842.33 -2840.52 -2839.34 -2839.93 -2838.93 -2839.62 -2842.65 -2847.05 -2847.25 -2848.72 -2848.54 -2851.60 -2855.74 -2861.51 -2865.74 -2870.04 -2878.29 -2885.20 -2890.10 -2896.26 -2903.71 -2907.50 -2909.89 -2915.60 -2922.44 -2925.81 -2926.64 -2929.72 -2933.19 -2940.24 -2945.25 -2951.10 -2954.50 -2959.48 -2962.47 -2965.38 -2968.92 -2970.69 -2970.97 -2969.57 -2973.53 -2979.22 -2980.28 -2981.71 -2985.87 -2989.83 -2994.74 -2999.91 -3001.80 -3005.29 -3004.85 -3008.64 -3010.34 -3014.45 -3019.40 -3019.91 -3022.07 -3025.79 -3030.22 -3030.11 -3027.72 -3026.08 -3022.56 -3017.22 -3026.47 -3086.25 -3053.91 -3010.92 -3003.81 -3006.54 -3008.02 -3010.93 -3012.40 -3013.19 -3016.51 -3021.28 -3024.05 -3025.22 -3027.20 -3030.27 -3032.06 -3035.49 -3039.02 -3040.00 -3043.77 -3041.17 -3039.86 -3038.10 -3033.30 -3029.28 -3023.74 -3020.12 -3015.17 -3006.86 -2996.84 -2986.64 -2973.63 -2956.91 -2944.67 -2928.86 -2907.12 -2884.76 -2868.52 -2860.16 -2865.45 -2871.28 -2873.01 -2876.28 -2880.91 -2889.15 -2893.41 -2896.57 -2900.65 -2903.17 -2903.29 -2906.07 -2908.48 -2908.54 -2905.28 -2904.57 -2905.07 -2903.92 -2902.25 -2898.41 -2894.82 -2889.33 -2886.30 -2882.47 -2877.44 -2874.61 -2870.57 -2867.92 -2866.19 -2867.17 -2864.87 -2861.04 -2857.64 -2857.75 -2855.30 -2853.00 -2849.20 -2846.36 -2844.22 -2843.65 -2846.64 -2849.13 -2851.36 -2855.72 -2860.44 -2868.49 -2878.58 -2889.48 -2898.23 -2911.30 -2921.80 -2937.77 -2954.79 -2977.96 -3001.07 -3022.08 -3024.07 -3026.27 -3029.72 -3031.04 -3033.72 -3035.47 -3040.05 -3046.07 -3048.61 -3049.93 -3053.09 -3057.83 -3060.71 -3062.16 -3063.73 -3062.68 -3053.23 -3044.54 -3037.67 -3028.10 -2996.84 -2955.17 -2920.82 -2894.46 -2875.43 -2861.45 -2853.29 -2844.04 -2839.49 -2835.42 -2833.19 -2832.66 -2832.72 -2831.17 -2830.36 -2835.66 -2840.23 -2846.59 -2852.82 -2861.50 -2869.19 -2877.74 -2885.41 -2889.99 -2894.45 -2899.13 -2902.90 -2904.64 -2905.25
-3000.28 -3003.88 -3006.79 -3011.26 -3013.02 -3010.35 -3005.27 -3001.38 -2997.52 -2992.90 -2986.71 -2978.06 -2967.25 -2958.42 -2948.26 -2938.10 -2927.22 -2920.27 -2911.68 -2902.78 -2896.77 -2892.05 -2883.20 -2875.18 -2869.39 -2866.06 -2860.34 -2853.60 -2848.03 -2841.01 -2835.10 -2832.24 -2829.81 -2829.83 -2828.24 -2829.10 -2830.76 -2835.14 -2838.94 -2840.15 -2839.37 -2840.58 -2843.05 -2845.84 -2850.28 -2856.20 -2862.11 -2866.44 -2875.18 -2881.40 -2888.19 -2894.94 -2898.87 -2904.94 -2909.84 -2916.71 -2919.69 -2920.64 -2924.24 -2930.78 -2933.68 -2939.26 -2945.72 -2950.12 -2952.30 -2955.99 -2961.48 -2963.24 -2964.01 -2963.95 -2966.02 -2969.44 -2973.73 -2975.30 -2976.41 -2980.63 -2986.52 -2990.37 -2994.20 -2999.32 -2999.60 -3000.71 -3002.77 -3009.00 -3012.14 -3013.49 -3016.80 -3019.30 -3022.73 -3025.36 -3026.87 -3025.16 -3022.82 -3020.80 -3017.99 -3018.34 -3037.70 -3095.94 -3024.02 -3006.87 -3009.63 -3010.37 -3009.25 -3010.81 -3013.87 -3014.72 -3017.64 -3021.07 -3024.19 -3026.08 -3030.16 -3034.10 -3037.10 -3039.45 -3040.04 -3039.01 -3037.06 -3041.29 -3034.55 -3027.52 -3021.93 -3019.70 -3013.91 -3008.90 -3002.33 -2992.72 -2981.25 -2967.89 -2954.00 -2942.92 -2925.87 -2904.13 -2883.26 -2866.44 -2860.88 -2860.92 -2863.62 -2865.35 -2868.37 -2872.61 -2876.55 -2882.81 -2883.58 -2884.05 -2884.15 -2885.86 -2887.67 -2888.78 -2888.72 -2886.99 -2886.88 -2888.02 -2889.23 -2885.73 -2885.14 -2880.80 -2874.82 -2869.89 -2866.68 -2861.86 -2854.87 -2851.93 -2850.19 -2849.21 -2846.91 -2844.18 -2841.22 -2838.41 -2836.30 -2834.16 -2829.89 -2825.28 -2821.87 -2816.89 -2816.84 -2818.09 -2820.30 -2819.06 -2821.56 -2829.30 -2835.77 -2843.21 -2851.61 -2862.35 -2874.10 -2884.36 -2900.65 -2920.83 -2940.65 -2963.67 -2983.35 -2990.19 -2998.25 -3002.00 -3005.41 -3008.30 -3014.04 -3019.71 -3024.05 -3029.59 -3033.62 -3037.30 -3041.51 -3047.19 -3051.49 -3053.50 -3051.69 -3046.21 -3036.40 -3030.01 -3014.83 -2977.73 -2950.64 -2900.67 -2859.72 -2834.72 -2820.60 -2812.58 -2803.97 -2797.78 -2797.13 -2796.63 -2796.12 -2796.35 -2799.54 -2801.71 -2806.58 -2813.85 -2818.73 -2825.87 -2834.36 -2842.20 -2849.34 -2853.64 -2860.86 -2864.24 -2868.02 -2874.17 -2879.35 -2879.36
